ply
format ascii 1.0
comment VCGLIB generated
element vertex 1461
property float x
property float y
property float z
property uchar red
property uchar green
property uchar blue
property uchar alpha
element face 0
property list uchar int vertex_indices
end_header
8.106 7.287 4.5 40 30 26 255 
8.294 7.243 4.501 44 34 33 255 
8.425 7.234 4.495 98 96 87 255 
7.792 7.451 4.496 41 32 30 255 
7.804 7.545 4.518 40 33 34 255 
4.668 7.737 4.477 108 101 97 255 
7.782 7.789 4.509 42 35 30 255 
7.818 7.696 4.489 43 33 31 255 
4.56 7.906 4.54 118 112 106 255 
4.612 7.818 4.535 130 119 112 255 
7.753 7.857 4.502 66 61 60 255 
7.861 7.93 4.501 57 49 47 255 
4.508 8.047 4.508 76 70 63 255 
7.749 8.132 4.5 119 108 103 255 
7.819 8.041 4.494 108 103 100 255 
7.573 8.366 4.491 125 115 108 255 
7.647 8.268 4.501 124 113 106 255 
7.395 8.593 4.489 129 119 112 255 
7.473 8.497 4.502 129 118 112 255 
7.117 8.728 4.502 114 109 103 255 
7.317 8.699 4.499 125 117 110 255 
7.401 8.604 4.584 130 119 112 255 
7.138 8.933 4.493 117 109 103 255 
7.22 8.826 4.505 99 98 95 255 
6.971 9.164 4.492 129 119 112 255 
7.044 9.066 4.506 130 119 112 255 
6.794 9.396 4.487 130 119 112 255 
6.874 9.292 4.498 129 119 112 255 
6.453 9.567 4.504 34 28 28 255 
6.723 9.493 4.501 96 89 83 255 
5.965 9.741 4.491 42 33 30 255 
6.107 9.715 4.504 38 28 26 255 
6.308 9.69 4.501 36 28 26 255 
6.484 9.645 4.495 36 28 26 255 
6.623 9.633 4.509 35 27 29 255 
7.529 3.945 4.74 89 86 81 255 
7.352 4.152 4.702 46 44 46 255 
7.472 4.04 4.705 62 59 61 255 
7.184 4.378 4.697 68 65 65 255 
7.258 4.281 4.703 50 50 54 255 
7.094 4.502 4.701 49 52 56 255 
6.937 4.71 4.703 52 51 56 255 
7.013 4.616 4.679 48 46 54 255 
6.759 4.945 4.705 42 42 47 255 
6.836 4.845 4.691 52 51 55 255 
6.583 5.179 4.707 51 52 55 255 
6.659 5.082 4.701 55 55 59 255 
6.505 5.285 4.705 55 56 60 255 
6.332 5.507 4.787 77 74 73 255 
9.68 5.558 4.703 40 31 30 255 
6.16 5.739 4.785 38 32 34 255 
6.268 5.67 4.705 83 80 76 255 
9.554 5.731 4.693 88 91 90 255 
9.624 5.639 4.706 40 27 26 255 
5.992 5.962 4.793 48 39 38 255 
6.058 5.88 4.787 50 42 41 255 
9.37 5.98 4.733 90 93 96 255 
9.439 5.883 4.692 92 101 95 255 
5.9 6.092 4.785 50 53 51 255 
9.196 6.198 4.658 63 76 89 255 
9.283 6.1 4.705 91 91 89 255 
5.752 6.347 4.723 91 88 82 255 
5.81 6.203 4.791 72 82 76 255 
8.922 6.333 4.696 91 87 83 255 
9.122 6.313 4.698 92 92 88 255 
9.205 6.206 4.706 57 55 69 255 
5.709 6.405 4.698 122 119 112 255 
8.924 6.551 4.694 96 96 93 255 
9.042 6.416 4.686 92 91 85 255 
8.778 6.768 4.701 89 88 84 255 
8.856 6.663 4.7 89 90 88 255 
8.599 6.996 4.764 75 63 64 255 
8.689 6.882 4.7 92 91 88 255 
8.254 7.172 4.707 62 55 55 255 
8.533 7.087 4.703 109 101 96 255 
7.774 7.344 4.694 42 35 36 255 
7.902 7.314 4.701 44 36 35 255 
8.096 7.287 4.699 44 38 35 255 
8.293 7.246 4.702 45 40 39 255 
8.429 7.238 4.709 79 80 78 255 
7.793 7.465 4.7 47 40 39 255 
7.805 7.56 4.712 45 36 36 255 
7.792 7.775 4.662 48 39 40 255 
7.815 7.67 4.703 45 36 35 255 
4.543 7.927 4.685 92 89 87 255 
4.606 7.816 4.624 83 72 83 255 
7.754 7.851 4.7 63 58 53 255 
7.863 7.927 4.702 52 45 44 255 
4.5 8.043 4.703 59 54 53 255 
7.755 8.121 4.706 130 119 112 255 
7.82 8.033 4.689 99 89 85 255 
7.575 8.361 4.704 130 119 112 255 
7.643 8.271 4.703 130 119 112 255 
7.393 8.593 4.728 130 119 112 255 
7.476 8.494 4.705 129 118 112 255 
7.124 8.72 4.705 126 116 110 255 
7.324 8.693 4.701 129 119 111 255 
7.133 8.945 4.707 121 112 105 255 
7.223 8.821 4.705 127 119 110 255 
6.974 9.158 4.698 125 117 110 255 
7.047 9.063 4.698 112 105 99 255 
6.795 9.392 4.686 130 119 112 255 
6.871 9.298 4.699 129 118 111 255 
6.453 9.571 4.691 40 31 28 255 
6.724 9.494 4.703 113 106 101 255 
5.964 9.742 4.71 41 33 31 255 
6.096 9.719 4.703 39 29 28 255 
6.309 9.688 4.7 35 26 25 255 
6.481 9.646 4.698 38 28 26 255 
6.624 9.635 4.69 46 38 36 255 
7.628 3.772 4.835 43 35 32 255 
7.511 3.933 4.837 98 95 89 255 
7.602 3.819 4.816 68 64 52 255 
7.342 4.143 4.82 75 82 74 255 
7.484 4.026 4.893 111 111 105 255 
7.171 4.369 4.824 68 83 81 255 
7.249 4.267 4.819 58 56 65 255 
7.08 4.494 4.817 60 63 68 255 
6.926 4.699 4.816 49 50 59 255 
6.747 4.939 4.822 69 74 78 255 
6.819 4.843 4.818 67 68 74 255 
6.583 5.163 4.813 50 51 60 255 
6.657 5.062 4.819 73 70 73 255 
6.475 5.308 4.818 83 81 80 255 
6.326 5.509 4.82 108 110 100 255 
9.673 5.546 4.909 38 29 28 255 
6.154 5.743 4.819 72 88 81 255 
6.261 5.669 4.89 89 86 83 255 
9.557 5.725 4.898 69 66 67 255 
9.626 5.631 4.902 39 32 33 255 
5.98 5.975 4.814 75 88 83 255 
6.057 5.875 4.819 74 69 66 255 
9.378 5.972 4.892 81 81 81 255 
9.423 5.91 4.945 45 46 53 255 
5.891 6.1 4.82 60 48 53 255 
9.199 6.196 4.961 28 31 38 255 
9.286 6.092 4.894 73 72 72 255 
5.751 6.35 4.87 104 96 92 255 
5.808 6.207 4.825 50 46 52 255 
8.921 6.332 4.896 64 66 70 255 
9.119 6.309 4.898 71 71 72 255 
9.204 6.204 4.881 75 74 76 255 
5.717 6.407 4.934 131 119 112 255 
8.928 6.551 4.893 72 69 70 255 
9.019 6.438 4.906 69 71 71 255 
8.775 6.769 4.901 72 72 72 255 
8.853 6.666 4.899 68 68 71 255 
8.593 7 4.898 85 69 62 255 
8.686 6.885 4.898 75 74 75 255 
8.26 7.17 4.901 81 73 68 255 
8.533 7.087 4.899 114 105 98 255 
7.774 7.35 4.896 38 29 28 255 
7.906 7.312 4.899 41 32 29 255 
8.097 7.287 4.899 41 30 28 255 
8.284 7.239 4.901 48 37 35 255 
8.427 7.236 4.908 118 115 109 255 
7.79 7.471 4.912 46 34 31 255 
7.806 7.569 4.886 39 33 34 255 
7.785 7.785 4.932 42 27 26 255 
7.817 7.683 4.897 44 37 36 255 
4.533 7.984 4.897 112 101 102 255 
7.753 7.851 4.905 56 49 48 255 
7.866 7.939 4.896 58 48 47 255 
4.504 8.05 4.904 58 52 53 255 
7.752 8.127 4.902 129 119 112 255 
7.816 8.038 4.876 118 112 103 255 
7.573 8.363 4.896 130 119 112 255 
7.645 8.267 4.9 129 119 112 255 
7.398 8.592 4.896 131 119 112 255 
7.474 8.495 4.902 130 119 112 255 
7.125 8.723 4.894 125 118 111 255 
7.314 8.703 4.901 129 118 111 255 
7.136 8.944 4.905 130 119 112 255 
7.223 8.822 4.884 129 119 111 255 
6.972 9.163 4.898 111 105 99 255 
7.048 9.062 4.898 128 118 110 255 
6.794 9.391 4.908 130 119 112 255 
6.872 9.296 4.899 123 114 108 255 
6.457 9.564 4.894 37 30 30 255 
6.726 9.491 4.9 124 116 109 255 
5.965 9.741 4.901 42 34 33 255 
6.097 9.717 4.902 38 30 28 255 
6.309 9.689 4.897 38 29 27 255 
6.486 9.645 4.9 40 30 28 255 
6.624 9.638 4.9 61 53 52 255 
7.538 3.963 5.018 131 120 113 255 
9.669 5.531 5.096 43 36 36 255 
6.286 5.634 5.006 131 119 112 255 
9.529 5.766 5.149 68 66 68 255 
9.627 5.634 5.105 56 46 45 255 
9.378 5.969 5.094 69 75 76 255 
9.457 5.867 5.095 82 81 80 255 
9.199 6.194 5.188 129 119 85 255 
9.281 6.096 5.099 74 74 74 255 
5.746 6.374 5.041 118 114 108 255 
8.922 6.328 5.098 74 70 72 255 
9.118 6.308 5.096 55 55 59 255 
9.205 6.202 5.123 107 103 88 255 
5.708 6.406 5.026 131 120 112 255 
8.916 6.547 5.094 60 60 65 255 
9.022 6.426 5.113 100 98 95 255 
8.777 6.763 5.087 92 94 93 255 
8.85 6.667 5.092 69 70 75 255 
8.597 6.998 5.099 31 35 45 255 
8.682 6.887 5.099 86 84 82 255 
8.251 7.174 5.097 71 67 61 255 
8.53 7.086 5.1 107 101 97 255 
7.773 7.346 5.091 39 27 27 255 
7.91 7.314 5.094 39 30 29 255 
8.104 7.283 5.101 38 27 26 255 
8.298 7.247 5.1 49 39 37 255 
8.428 7.234 5.103 122 113 104 255 
7.791 7.456 5.11 50 37 33 255 
7.805 7.557 5.091 54 45 43 255 
7.784 7.764 5.083 36 28 28 255 
7.816 7.684 5.094 44 35 33 255 
7.757 7.85 5.095 59 54 54 255 
7.848 7.925 5.104 49 41 46 255 
4.518 8.034 5.034 84 75 69 255 
7.747 8.129 5.095 129 119 112 255 
7.816 8.031 5.091 113 103 96 255 
7.574 8.36 5.096 128 118 110 255 
7.642 8.269 5.104 130 119 112 255 
7.394 8.594 5.078 130 119 112 255 
7.474 8.495 5.103 127 117 111 255 
7.127 8.721 5.095 124 116 110 255 
7.316 8.698 5.103 127 117 111 255 
7.127 8.94 5.098 130 119 112 255 
7.217 8.826 5.095 121 117 111 255 
6.968 9.164 5.105 129 119 112 255 
7.046 9.064 5.097 130 119 112 255 
6.796 9.391 5.077 113 106 99 255 
6.869 9.298 5.1 115 107 102 255 
6.451 9.571 5.101 39 31 28 255 
6.725 9.49 5.103 119 112 106 255 
5.964 9.743 5.102 40 32 31 255 
6.093 9.719 5.097 37 29 27 255 
6.302 9.69 5.1 38 28 27 255 
6.489 9.646 5.095 39 30 27 255 
6.626 9.634 5.089 59 53 51 255 
9.609 5.136 5.373 58 43 48 255 
9.624 5.27 5.386 90 77 68 255 
9.555 5.474 5.359 56 46 45 255 
9.669 5.531 5.279 49 37 35 255 
9.556 5.731 5.298 62 60 63 255 
9.628 5.632 5.286 104 97 93 255 
9.378 5.97 5.301 43 46 51 255 
9.456 5.867 5.294 49 49 55 255 
9.198 6.198 5.332 20 21 25 255 
9.284 6.094 5.296 48 49 54 255 
8.924 6.33 5.295 42 44 50 255 
9.123 6.307 5.295 40 42 47 255 
9.203 6.205 5.27 90 87 76 255 
8.929 6.551 5.29 50 49 54 255 
9.031 6.422 5.31 39 37 43 255 
8.773 6.77 5.298 46 44 51 255 
8.843 6.676 5.306 38 39 46 255 
8.597 6.992 5.269 27 29 38 255 
8.68 6.891 5.311 43 45 50 255 
8.251 7.176 5.318 52 49 50 255 
8.531 7.087 5.317 91 83 80 255 
8.608 7.003 5.369 18 21 27 255 
7.766 7.35 5.308 44 39 39 255 
7.906 7.322 5.326 54 47 47 255 
8.104 7.289 5.316 50 45 41 255 
8.292 7.244 5.318 51 47 45 255 
8.428 7.238 5.332 75 72 68 255 
7.774 7.474 5.321 51 50 47 255 
7.804 7.554 5.285 50 48 50 255 
7.778 7.729 5.312 53 51 49 255 
7.815 7.686 5.3 48 43 41 255 
7.757 7.839 5.309 60 59 62 255 
7.855 7.925 5.299 62 61 65 255 
7.745 8.129 5.301 129 119 111 255 
7.812 8.04 5.322 99 100 92 255 
7.571 8.364 5.293 130 119 112 255 
7.64 8.27 5.297 130 119 112 255 
7.391 8.591 5.279 131 119 112 255 
7.473 8.494 5.297 129 118 111 255 
7.123 8.731 5.311 125 115 109 255 
7.317 8.699 5.297 130 119 111 255 
7.401 8.6 5.286 115 119 112 255 
7.129 8.947 5.298 130 119 112 255 
7.219 8.825 5.308 127 117 111 255 
6.971 9.162 5.304 131 119 112 255 
7.046 9.063 5.299 131 119 112 255 
6.793 9.389 5.301 113 107 102 255 
6.871 9.295 5.301 130 119 112 255 
6.452 9.571 5.323 37 34 32 255 
6.723 9.492 5.301 102 96 92 255 
6.099 9.715 5.3 35 27 27 255 
6.308 9.688 5.3 36 27 27 255 
6.495 9.648 5.294 37 29 27 255 
6.627 9.632 5.292 44 39 41 255 
9.584 5.311 5.507 42 35 35 255 
9.621 5.297 5.492 47 39 38 255 
9.568 5.443 5.485 45 39 38 255 
9.667 5.525 5.511 41 34 34 255 
9.557 5.732 5.496 125 116 108 255 
9.618 5.649 5.504 127 116 109 255 
9.378 5.971 5.497 124 114 107 255 
9.456 5.869 5.5 124 115 109 255 
9.198 6.189 5.42 131 119 99 255 
9.284 6.096 5.502 124 115 108 255 
8.918 6.332 5.508 130 119 112 255 
9.117 6.31 5.496 117 112 106 255 
9.205 6.204 5.475 129 119 112 255 
8.931 6.547 5.503 122 112 108 255 
9.019 6.416 5.489 131 119 112 255 
8.776 6.768 5.501 127 116 110 255 
8.849 6.673 5.502 128 117 110 255 
8.594 6.994 5.533 131 119 112 255 
8.679 6.898 5.498 124 115 109 255 
8.251 7.175 5.491 66 65 61 255 
8.527 7.099 5.498 129 118 110 255 
8.604 7.005 5.429 111 106 98 255 
7.765 7.351 5.502 39 29 28 255 
7.903 7.325 5.5 39 30 28 255 
8.107 7.292 5.498 41 30 28 255 
8.294 7.246 5.505 51 40 40 255 
8.426 7.238 5.505 103 97 94 255 
7.77 7.479 5.503 46 39 37 255 
7.805 7.569 5.491 45 38 38 255 
7.776 7.712 5.498 40 31 29 255 
7.815 7.683 5.501 44 33 32 255 
7.756 7.845 5.503 76 69 66 255 
7.858 7.929 5.5 73 68 67 255 
7.748 8.132 5.502 131 119 112 255 
7.817 8.033 5.496 121 111 105 255 
7.576 8.36 5.496 130 119 112 255 
7.65 8.264 5.5 130 119 112 255 
7.39 8.593 5.462 131 120 113 255 
7.473 8.497 5.504 130 119 112 255 
7.119 8.729 5.503 95 89 84 255 
7.319 8.703 5.496 122 114 108 255 
7.126 8.938 5.503 130 119 111 255 
7.218 8.824 5.496 100 95 93 255 
6.973 9.162 5.497 131 119 112 255 
7.045 9.066 5.5 131 118 112 255 
6.789 9.392 5.489 131 119 112 255 
6.872 9.297 5.502 131 119 112 255 
6.447 9.574 5.52 38 30 27 255 
6.724 9.491 5.499 129 117 111 255 
6.096 9.717 5.503 36 27 26 255 
6.305 9.689 5.5 36 28 25 255 
6.493 9.644 5.494 35 29 28 255 
6.626 9.635 5.504 53 48 49 255 
9.585 5.307 5.693 43 34 33 255 
9.623 5.289 5.702 44 35 34 255 
9.565 5.447 5.696 42 34 33 255 
9.67 5.528 5.702 44 34 33 255 
9.553 5.738 5.698 118 110 104 255 
9.615 5.654 5.698 107 100 97 255 
9.38 5.97 5.7 118 109 104 255 
9.456 5.87 5.7 115 106 101 255 
9.199 6.197 5.709 131 120 112 255 
9.285 6.095 5.698 123 112 106 255 
8.924 6.334 5.698 129 118 111 255 
9.128 6.305 5.699 125 116 110 255 
9.206 6.206 5.737 114 106 102 255 
8.939 6.544 5.698 130 119 112 255 
9.039 6.415 5.715 131 119 112 255 
8.776 6.768 5.697 130 119 112 255 
8.853 6.669 5.7 130 119 111 255 
8.597 6.995 5.722 128 120 112 255 
8.679 6.898 5.698 129 119 112 255 
8.263 7.163 5.704 71 63 62 255 
8.531 7.097 5.699 130 119 111 255 
8.606 7.005 5.694 131 119 112 255 
7.765 7.35 5.705 35 28 28 255 
7.9 7.327 5.703 34 27 27 255 
8.105 7.292 5.701 37 28 26 255 
8.292 7.245 5.699 48 38 38 255 
8.429 7.233 5.697 107 101 96 255 
7.771 7.484 5.7 48 40 37 255 
7.803 7.574 5.712 48 44 38 255 
7.775 7.719 5.705 44 32 30 255 
7.815 7.684 5.696 43 34 33 255 
7.759 7.844 5.698 54 48 49 255 
7.862 7.934 5.694 67 60 58 255 
7.747 8.132 5.7 130 119 112 255 
7.818 8.036 5.693 115 109 102 255 
7.57 8.367 5.702 130 120 113 255 
7.648 8.266 5.695 128 119 112 255 
7.395 8.587 5.692 122 120 113 255 
7.472 8.498 5.702 129 119 112 255 
7.118 8.731 5.702 39 34 33 255 
7.316 8.705 5.695 88 81 78 255 
7.137 8.93 5.7 93 85 75 255 
7.226 8.816 5.687 42 38 38 255 
6.972 9.163 5.695 129 118 111 255 
7.048 9.063 5.703 124 114 104 255 
6.792 9.387 5.692 128 119 112 255 
6.875 9.294 5.702 126 115 107 255 
6.457 9.57 5.692 46 37 33 255 
6.728 9.49 5.7 116 106 96 255 
6.803 9.401 5.644 131 119 112 255 
6.106 9.718 5.702 37 27 25 255 
6.305 9.688 5.699 38 30 28 255 
6.485 9.643 5.697 40 30 28 255 
6.624 9.635 5.705 50 44 39 255 
9.587 5.313 5.898 41 33 31 255 
9.62 5.301 5.899 39 32 31 255 
9.565 5.451 5.897 38 29 28 255 
9.663 5.528 5.901 36 29 28 255 
9.553 5.739 5.9 44 35 35 255 
9.614 5.653 5.897 39 31 31 255 
9.379 5.975 5.904 50 40 38 255 
9.455 5.875 5.899 50 39 37 255 
9.287 6.096 5.899 52 44 44 255 
8.921 6.328 5.9 69 61 60 255 
9.121 6.311 5.9 61 56 55 255 
9.208 6.205 5.91 55 49 49 255 
8.936 6.543 5.898 88 83 81 255 
9.032 6.417 5.878 95 87 83 255 
8.777 6.769 5.902 116 111 105 255 
8.852 6.671 5.901 112 107 102 255 
8.599 6.999 5.868 131 120 113 255 
8.679 6.9 5.901 121 114 107 255 
8.25 7.173 5.898 39 30 29 255 
8.53 7.098 5.896 101 92 88 255 
8.604 7.003 5.936 127 120 113 255 
7.766 7.352 5.904 35 27 25 255 
7.897 7.327 5.901 37 28 27 255 
8.105 7.292 5.9 40 31 28 255 
8.289 7.243 5.899 42 31 31 255 
8.427 7.239 5.899 57 51 51 255 
7.771 7.493 5.898 47 38 37 255 
7.802 7.581 5.905 50 39 37 255 
7.775 7.713 5.91 41 32 30 255 
7.813 7.684 5.903 44 34 33 255 
7.758 7.853 5.894 38 31 31 255 
7.858 7.929 5.891 37 31 29 255 
7.746 8.131 5.898 79 72 69 255 
7.815 8.036 5.91 53 43 43 255 
7.57 8.366 5.908 74 70 68 255 
7.647 8.264 5.895 93 84 79 255 
7.394 8.591 5.884 67 63 61 255 
7.474 8.496 5.899 67 63 62 255 
7.111 8.732 5.897 38 30 28 255 
7.324 8.696 5.893 50 43 44 255 
7.128 8.94 5.9 45 36 34 255 
7.221 8.817 5.907 35 28 25 255 
6.975 9.16 5.892 72 62 48 255 
7.047 9.065 5.9 55 47 40 255 
6.789 9.391 5.902 54 44 40 255 
6.874 9.295 5.9 64 55 42 255 
6.447 9.573 5.888 38 33 31 255 
6.723 9.494 5.898 47 40 35 255 
6.802 9.403 5.876 55 54 46 255 
6.098 9.716 5.899 36 28 27 255 
6.3 9.69 5.9 37 28 27 255 
6.491 9.643 5.9 38 31 30 255 
6.624 9.631 5.905 37 30 29 255 
9.586 5.313 6.094 43 35 34 255 
9.622 5.284 6.096 39 31 31 255 
9.566 5.444 6.095 38 30 30 255 
9.661 5.529 6.098 38 30 31 255 
9.552 5.739 6.103 45 34 32 255 
9.613 5.651 6.094 38 29 27 255 
9.38 5.967 6.105 45 37 36 255 
9.455 5.869 6.099 46 35 33 255 
9.199 6.195 6.085 47 32 32 255 
9.283 6.097 6.098 46 33 33 255 
8.92 6.331 6.099 40 30 30 255 
9.118 6.309 6.101 38 29 30 255 
9.206 6.207 6.097 47 35 35 255 
8.94 6.538 6.103 39 33 33 255 
9.024 6.425 6.082 43 33 32 255 
8.774 6.771 6.108 56 49 48 255 
8.852 6.668 6.097 59 51 50 255 
8.595 6.999 6.085 89 79 78 255 
8.678 6.9 6.1 64 56 55 255 
8.26 7.174 6.111 35 29 27 255 
8.528 7.098 6.101 51 41 41 255 
8.602 7.004 6.117 74 66 62 255 
7.766 7.351 6.103 35 27 26 255 
7.906 7.323 6.104 37 29 28 255 
8.11 7.292 6.098 38 30 29 255 
8.292 7.244 6.1 40 31 30 255 
8.428 7.235 6.098 35 26 26 255 
7.773 7.495 6.107 43 34 33 255 
7.803 7.574 6.089 42 33 31 255 
7.775 7.714 6.105 42 32 30 255 
7.814 7.678 6.097 43 36 31 255 
7.756 7.85 6.101 35 28 27 255 
7.854 7.931 6.092 33 28 28 255 
7.747 8.13 6.098 44 34 33 255 
7.815 8.035 6.11 38 28 28 255 
7.571 8.364 6.1 48 35 32 255 
7.648 8.263 6.097 47 36 36 255 
7.393 8.586 6.12 47 28 28 255 
7.472 8.497 6.094 45 34 31 255 
7.11 8.735 6.099 36 29 27 255 
7.321 8.696 6.099 39 31 29 255 
7.401 8.603 6.067 49 29 27 255 
7.133 8.933 6.095 38 29 28 255 
7.222 8.818 6.104 34 27 26 255 
6.971 9.159 6.098 43 34 34 255 
7.047 9.06 6.098 42 32 31 255 
6.794 9.386 6.097 46 36 38 255 
6.872 9.294 6.095 44 34 33 255 
6.459 9.568 6.095 41 32 29 255 
6.724 9.492 6.102 36 29 28 255 
6.1 9.719 6.097 37 26 25 255 
6.303 9.687 6.103 40 28 26 255 
6.498 9.646 6.103 43 32 29 255 
6.624 9.63 6.103 36 30 28 255 
9.588 5.317 6.298 38 29 28 255 
9.62 5.29 6.3 39 30 30 255 
9.57 5.443 6.294 36 30 31 255 
9.664 5.529 6.3 37 29 29 255 
9.551 5.737 6.299 44 35 34 255 
9.616 5.649 6.297 36 28 29 255 
9.377 5.971 6.302 49 38 39 255 
9.453 5.87 6.299 47 38 36 255 
9.281 6.098 6.298 44 36 36 255 
8.918 6.33 6.3 42 33 32 255 
9.12 6.309 6.301 38 30 30 255 
9.204 6.207 6.306 40 33 33 255 
8.937 6.532 6.295 37 30 30 255 
9.034 6.417 6.304 45 34 31 255 
8.775 6.766 6.305 49 39 38 255 
8.849 6.671 6.296 45 38 37 255 
8.598 6.99 6.251 51 41 35 255 
8.679 6.897 6.299 49 40 39 255 
8.25 7.174 6.308 35 25 25 255 
8.53 7.096 6.301 47 37 35 255 
8.6 7.005 6.341 50 37 31 255 
7.766 7.35 6.301 38 28 28 255 
7.902 7.322 6.299 39 30 28 255 
8.105 7.291 6.298 39 29 27 255 
8.295 7.246 6.302 38 28 27 255 
8.424 7.24 6.301 35 27 26 255 
7.771 7.489 6.299 45 33 33 255 
7.803 7.577 6.335 42 36 39 255 
7.775 7.723 6.299 40 32 32 255 
7.811 7.675 6.301 40 32 30 255 
7.756 7.845 6.297 36 29 29 255 
7.855 7.934 6.296 36 29 29 255 
7.748 8.129 6.298 44 37 36 255 
7.814 8.035 6.297 39 32 30 255 
7.571 8.363 6.293 46 37 36 255 
7.648 8.265 6.297 48 37 37 255 
7.393 8.586 6.302 43 30 32 255 
7.471 8.497 6.296 42 35 35 255 
7.108 8.734 6.303 33 28 27 255 
7.325 8.695 6.3 39 30 29 255 
7.132 8.942 6.293 39 31 30 255 
7.223 8.814 6.322 32 27 26 255 
6.971 9.161 6.295 41 32 30 255 
7.047 9.063 6.303 42 32 31 255 
6.79 9.386 6.279 40 34 35 255 
6.869 9.298 6.298 45 34 33 255 
6.444 9.572 6.309 38 28 27 255 
6.726 9.489 6.301 39 28 28 255 
6.095 9.718 6.297 35 26 26 255 
6.306 9.687 6.301 37 28 28 255 
6.49 9.646 6.302 38 30 28 255 
6.626 9.629 6.303 33 28 26 255 
9.587 5.307 6.496 38 29 28 255 
9.569 5.445 6.493 38 31 30 255 
9.663 5.523 6.5 39 30 30 255 
9.549 5.741 6.501 43 33 33 255 
9.615 5.648 6.493 35 27 26 255 
9.376 5.972 6.499 45 38 37 255 
9.451 5.874 6.497 46 36 37 255 
9.197 6.194 6.549 48 37 36 255 
9.282 6.097 6.501 47 35 32 255 
8.919 6.326 6.5 40 31 30 255 
9.118 6.31 6.495 39 30 29 255 
9.205 6.206 6.498 47 34 33 255 
8.935 6.541 6.5 35 28 28 255 
9.013 6.435 6.51 45 34 33 255 
8.776 6.768 6.501 51 36 33 255 
8.849 6.672 6.497 43 34 33 255 
8.678 6.9 6.5 48 36 35 255 
8.251 7.173 6.494 32 26 26 255 
8.532 7.092 6.5 44 33 32 255 
8.605 7.003 6.468 43 40 43 255 
7.763 7.348 6.504 35 27 27 255 
7.902 7.323 6.506 38 28 26 255 
8.11 7.291 6.502 38 28 26 255 
8.29 7.244 6.503 37 30 30 255 
8.431 7.231 6.498 36 27 27 255 
7.77 7.489 6.496 44 35 34 255 
7.801 7.586 6.528 40 33 32 255 
7.774 7.723 6.497 44 33 33 255 
7.81 7.684 6.505 46 38 39 255 
7.754 7.844 6.499 36 28 28 255 
7.856 7.933 6.501 34 27 27 255 
7.747 8.13 6.499 44 33 31 255 
7.814 8.036 6.491 39 29 28 255 
7.573 8.364 6.501 42 36 35 255 
7.648 8.266 6.499 42 35 36 255 
7.395 8.586 6.497 46 38 35 255 
7.477 8.494 6.501 41 32 32 255 
7.115 8.733 6.504 33 27 27 255 
7.325 8.694 6.502 38 31 31 255 
7.405 8.6 6.507 51 47 44 255 
7.134 8.936 6.498 37 29 28 255 
7.226 8.814 6.514 31 26 26 255 
6.974 9.162 6.498 41 34 34 255 
7.05 9.062 6.497 44 33 32 255 
6.788 9.392 6.486 34 30 29 255 
6.872 9.297 6.502 39 30 29 255 
6.443 9.573 6.515 38 31 30 255 
6.725 9.495 6.503 35 28 28 255 
6.1 9.715 6.5 38 28 27 255 
6.308 9.687 6.501 40 30 28 255 
6.497 9.65 6.502 39 30 30 255 
6.624 9.634 6.493 36 27 26 255 
9.586 5.306 6.69 45 35 34 255 
9.57 5.447 6.706 38 31 31 255 
9.663 5.531 6.702 37 32 33 255 
9.55 5.74 6.698 42 35 36 255 
9.616 5.65 6.697 38 31 31 255 
9.379 5.97 6.704 46 39 39 255 
9.455 5.87 6.7 47 37 36 255 
9.197 6.191 6.701 41 33 32 255 
9.284 6.097 6.699 42 34 33 255 
8.923 6.328 6.702 37 29 29 255 
9.117 6.313 6.697 35 28 28 255 
9.205 6.207 6.718 40 32 29 255 
8.937 6.538 6.695 34 27 28 255 
9.018 6.429 6.718 41 30 31 255 
8.775 6.769 6.703 44 33 30 255 
8.851 6.67 6.702 38 31 31 255 
8.588 6.998 6.762 47 40 40 255 
8.677 6.9 6.699 43 35 34 255 
8.259 7.173 6.701 32 25 25 255 
8.531 7.096 6.698 42 33 32 255 
8.603 7.005 6.771 47 40 40 255 
7.765 7.35 6.698 36 29 30 255 
7.898 7.324 6.701 37 30 29 255 
8.107 7.29 6.699 35 29 29 255 
8.291 7.242 6.7 34 27 26 255 
8.427 7.237 6.706 33 26 26 255 
7.769 7.492 6.698 50 42 40 255 
7.804 7.586 6.733 47 40 41 255 
7.774 7.705 6.701 39 31 32 255 
7.811 7.679 6.706 41 35 34 255 
7.758 7.843 6.703 32 27 28 255 
7.851 7.931 6.704 32 28 28 255 
7.746 8.131 6.701 42 32 30 255 
7.812 8.036 6.694 39 30 29 255 
7.57 8.365 6.703 44 32 31 255 
7.648 8.263 6.706 44 33 31 255 
7.394 8.588 6.731 34 28 30 255 
7.473 8.496 6.702 41 32 31 255 
7.112 8.73 6.708 33 27 26 255 
7.322 8.698 6.701 36 28 28 255 
7.402 8.6 6.716 38 31 34 255 
7.132 8.933 6.694 37 29 27 255 
7.22 8.821 6.696 30 23 23 255 
6.974 9.159 6.699 45 32 32 255 
7.049 9.063 6.699 41 32 31 255 
6.789 9.381 6.72 38 33 31 255 
6.873 9.294 6.704 39 32 31 255 
6.447 9.569 6.701 33 28 27 255 
6.724 9.494 6.705 35 27 27 255 
6.103 9.718 6.698 38 26 26 255 
6.31 9.684 6.702 39 28 26 255 
6.496 9.645 6.714 36 29 28 255 
6.622 9.633 6.696 32 25 26 255 
9.569 5.446 6.896 46 37 36 255 
9.657 5.519 6.903 43 34 33 255 
9.541 5.728 6.898 46 40 37 255 
9.617 5.647 6.884 36 33 31 255 
9.371 5.957 6.896 48 43 40 255 
9.452 5.87 6.891 42 35 33 255 
9.174 6.157 6.94 67 67 61 255 
9.28 6.094 6.895 44 37 33 255 
8.916 6.324 6.9 44 37 38 255 
9.109 6.31 6.897 40 33 32 255 
9.212 6.221 6.921 78 67 57 255 
8.926 6.537 6.899 44 36 32 255 
9.008 6.428 6.865 39 29 31 255 
8.762 6.757 6.897 47 41 38 255 
8.847 6.665 6.892 40 33 30 255 
8.557 6.968 6.943 73 63 56 255 
8.67 6.899 6.892 42 36 34 255 
8.8 6.802 6.998 133 121 114 255 
8.26 7.175 6.907 54 51 48 255 
8.521 7.093 6.895 44 39 37 255 
8.617 7.017 6.968 87 85 81 255 
7.763 7.35 6.902 37 33 32 255 
7.895 7.324 6.897 34 28 28 255 
8.101 7.29 6.905 37 29 28 255 
8.291 7.243 6.897 40 31 31 255 
8.425 7.237 6.89 36 30 28 255 
7.769 7.489 6.9 49 42 41 255 
7.802 7.583 6.908 48 39 42 255 
7.775 7.722 6.891 44 40 40 255 
7.812 7.685 6.909 48 43 41 255 
7.756 7.854 6.905 58 52 48 255 
7.849 7.927 6.9 43 37 34 255 
7.736 8.123 6.899 56 51 46 255 
7.811 8.046 6.891 53 47 46 255 
7.566 8.352 6.901 56 50 48 255 
7.649 8.262 6.893 48 40 36 255 
7.374 8.556 6.938 100 89 77 255 
7.469 8.492 6.888 46 40 37 255 
7.109 8.731 6.905 50 44 42 255 
7.308 8.705 6.893 41 36 35 255 
7.429 8.624 6.988 133 121 108 255 
7.125 8.925 6.903 51 45 40 255 
7.219 8.82 6.84 28 24 23 255 
6.963 9.149 6.905 47 40 37 255 
7.044 9.062 6.891 43 36 34 255 
6.78 9.374 6.925 68 59 55 255 
6.871 9.287 6.893 43 36 33 255 
6.459 9.573 6.907 35 28 25 255 
6.718 9.491 6.893 36 31 28 255 
6.809 9.463 6.993 93 96 89 255 
6.102 9.719 6.898 39 30 30 255 
6.31 9.685 6.898 37 28 27 255 
6.502 9.641 6.907 36 28 26 255 
6.632 9.632 6.894 39 32 28 255 
9.568 5.443 7.104 55 47 45 255 
9.666 5.528 7.107 50 43 42 255 
9.58 5.77 7.056 122 117 107 255 
9.643 5.699 7.101 127 118 111 255 
9.498 5.902 7.073 119 113 106 255 
9.652 5.809 7.152 101 90 85 255 
9.33 6.115 7.064 124 117 108 255 
9.458 6.047 7.122 113 110 105 255 
8.922 6.324 7.098 64 52 51 255 
9.113 6.348 7.099 117 107 101 255 
9.266 6.277 7.116 112 112 106 255 
9.442 6.256 7.183 107 109 107 255 
8.973 6.539 7.099 118 105 98 255 
9.013 6.466 7.106 76 65 61 255 
9.333 6.414 7.196 128 121 114 255 
8.794 6.768 7.019 133 114 104 255 
8.889 6.702 7.078 120 114 105 255 
9.029 6.606 7.176 133 121 114 255 
8.729 6.919 7.074 123 116 110 255 
8.815 6.873 7.116 123 117 107 255 
8.249 7.178 7.112 95 83 82 255 
8.561 7.134 7.068 125 117 110 255 
8.639 7.052 7.079 126 117 109 255 
8.848 7.018 7.17 118 117 101 255 
7.762 7.35 7.102 43 32 32 255 
7.903 7.322 7.097 39 29 29 255 
8.106 7.29 7.103 38 29 27 255 
8.291 7.239 7.099 73 61 63 255 
8.475 7.24 7.1 129 120 113 255 
8.649 7.319 7.186 128 121 114 255 
7.769 7.495 7.099 48 40 39 255 
7.802 7.575 7.167 48 46 43 255 
7.774 7.72 7.101 47 39 37 255 
7.812 7.676 7.098 48 41 39 255 
7.757 7.853 7.097 95 85 83 255 
7.858 7.928 7.106 104 91 89 255 
7.786 8.151 7.054 124 114 111 255 
7.834 8.092 7.111 126 119 110 255 
7.574 8.313 7.005 133 121 110 255 
7.698 8.309 7.083 124 118 110 255 
7.829 8.277 7.159 122 119 111 255 
7.538 8.507 7.069 126 119 111 255 
7.657 8.478 7.145 121 119 111 255 
7.11 8.729 7.099 80 73 70 255 
7.308 8.76 7.097 69 60 58 255 
7.475 8.67 7.103 130 121 111 255 
7.62 8.643 7.187 133 122 114 255 
7.162 8.914 7.087 129 121 109 255 
7.21 8.897 7.118 127 118 110 255 
7.484 8.828 7.186 99 93 81 255 
7 9.173 7.025 109 121 114 255 
7.105 9.096 7.083 119 112 107 255 
6.937 9.316 7.067 127 117 108 255 
7.015 9.222 7.071 120 112 113 255 
7.223 9.252 7.171 118 121 114 255 
6.442 9.569 7.095 40 33 31 255 
6.762 9.548 7.058 124 114 107 255 
6.846 9.454 7.072 128 118 112 255 
6.095 9.719 7.103 43 32 31 255 
6.309 9.687 7.097 39 30 29 255 
6.501 9.644 7.099 38 30 29 255 
6.684 9.645 7.109 89 80 76 255 
6.922 9.747 7.186 133 121 114 255 
9.568 5.442 7.3 60 50 48 255 
9.667 5.521 7.304 50 42 41 255 
9.66 5.685 7.302 129 119 112 255 
9.577 5.93 7.232 122 116 108 255 
9.677 5.892 7.26 112 111 104 255 
9.887 5.937 7.36 117 109 101 255 
9.549 6.102 7.23 113 114 110 255 
9.756 6.078 7.337 120 117 110 255 
9.816 6.059 7.374 118 119 110 255 
8.919 6.323 7.297 68 58 57 255 
9.109 6.353 7.299 119 108 103 255 
9.272 6.32 7.265 116 116 111 255 
9.45 6.269 7.225 101 107 105 255 
9.816 6.218 7.376 116 116 109 255 
8.977 6.539 7.292 119 108 103 255 
9.015 6.474 7.295 83 72 70 255 
9.291 6.466 7.271 124 114 105 255 
8.949 6.635 7.294 118 114 109 255 
9.07 6.608 7.334 130 121 114 255 
8.777 6.952 7.232 113 117 111 255 
8.871 6.947 7.262 105 109 104 255 
8.25 7.174 7.301 107 97 90 255 
8.719 7.014 7.219 99 104 101 255 
8.892 7.048 7.257 114 112 106 255 
7.761 7.35 7.295 43 36 34 255 
7.896 7.324 7.299 36 30 30 255 
8.107 7.288 7.301 37 30 29 255 
8.292 7.239 7.304 79 67 65 255 
8.478 7.245 7.296 132 121 114 255 
8.67 7.363 7.262 132 121 114 255 
7.769 7.493 7.303 48 41 40 255 
7.803 7.575 7.289 54 45 37 255 
8.591 7.452 7.382 47 41 51 255 
8.7 7.466 7.322 133 121 111 255 
8.84 7.53 7.311 131 121 111 255 
7.774 7.713 7.302 48 40 39 255 
7.814 7.683 7.296 50 42 41 255 
7.76 7.85 7.301 98 86 79 255 
7.861 7.934 7.296 106 95 91 255 
7.844 8.099 7.301 131 121 114 255 
8.111 8.15 7.264 114 109 100 255 
8.23 8.158 7.359 48 36 35 255 
7.776 8.349 7.207 118 119 114 255 
7.846 8.356 7.248 118 119 113 255 
8.084 8.276 7.353 131 121 114 255 
8.217 8.212 7.313 133 121 107 255 
7.725 8.505 7.233 115 118 113 255 
7.826 8.412 7.3 105 112 114 255 
7.109 8.728 7.298 87 80 75 255 
7.302 8.765 7.299 72 62 58 255 
7.495 8.749 7.257 130 121 115 255 
7.637 8.643 7.238 130 121 114 255 
7.176 8.879 7.291 121 115 110 255 
7.216 8.923 7.296 127 120 113 255 
7.515 8.817 7.222 124 116 106 255 
7.167 9.018 7.326 93 98 101 255 
7.358 9.371 7.336 96 109 113 255 
6.443 9.56 7.299 43 32 31 255 
6.746 9.597 7.27 133 121 114 255 
7.189 9.491 7.207 133 121 114 255 
7.319 9.495 7.319 102 110 112 255 
7.441 9.449 7.338 98 109 112 255 
6.095 9.719 7.299 44 33 32 255 
6.304 9.687 7.302 39 30 29 255 
6.491 9.642 7.297 43 32 31 255 
6.691 9.643 7.298 99 88 83 255 
6.821 9.698 7.352 133 122 114 255 
7.08 9.712 7.3 125 118 109 255 
7.227 9.632 7.331 106 114 112 255 
6.786 9.902 7.291 47 24 22 255 
6.938 9.874 7.31 92 84 79 255 
7.007 9.817 7.351 133 121 114 255 
9.567 5.442 7.499 60 53 50 255 
9.669 5.526 7.499 52 41 41 255 
9.655 5.682 7.504 131 120 112 255 
9.776 6 7.452 109 117 111 255 
9.878 5.941 7.497 118 114 108 255 
10.023 5.826 7.425 52 41 36 255 
9.791 6.097 7.496 121 121 113 255 
9.851 6.1 7.499 120 120 113 255 
8.918 6.325 7.502 65 56 57 255 
9.108 6.354 7.498 119 108 102 255 
9.225 6.338 7.502 131 122 114 255 
9.826 6.21 7.504 115 117 110 255 
8.98 6.527 7.497 114 103 98 255 
9.014 6.487 7.509 90 80 77 255 
8.951 6.633 7.504 124 117 111 255 
9.018 6.602 7.555 134 122 115 255 
8.248 7.174 7.477 101 88 80 255 
7.763 7.349 7.496 44 33 31 255 
7.898 7.325 7.5 41 33 30 255 
8.103 7.291 7.499 39 29 28 255 
8.295 7.239 7.507 75 66 67 255 
8.481 7.243 7.493 132 121 114 255 
7.767 7.488 7.5 53 45 44 255 
7.805 7.589 7.482 54 47 45 255 
8.598 7.421 7.58 134 122 108 255 
8.7 7.529 7.485 94 83 75 255 
8.809 7.586 7.43 133 122 93 255 
7.779 7.723 7.499 51 42 43 255 
7.814 7.679 7.497 50 41 39 255 
8.772 7.6 7.59 58 51 58 255 
7.757 7.847 7.498 97 86 86 255 
7.852 7.923 7.493 107 93 90 255 
7.842 8.095 7.5 132 122 114 255 
8.19 8.125 7.521 48 36 35 255 
8.243 8.165 7.51 54 43 40 255 
8.094 8.302 7.492 132 122 114 255 
8.095 8.457 7.515 128 121 114 255 
7.107 8.732 7.503 96 85 79 255 
7.31 8.766 7.494 83 73 67 255 
7.413 8.749 7.476 134 122 115 255 
7.179 8.899 7.517 121 116 109 255 
7.214 8.907 7.489 129 121 113 255 
7.446 8.823 7.499 84 75 71 255 
7.163 9.025 7.483 90 97 99 255 
7.23 9.394 7.524 86 103 100 255 
7.442 9.357 7.423 94 98 105 255 
6.441 9.572 7.507 42 32 33 255 
7.288 9.444 7.429 91 102 104 255 
6.097 9.717 7.497 44 34 33 255 
6.304 9.686 7.502 39 29 28 255 
6.494 9.642 7.495 42 32 30 255 
6.69 9.644 7.505 96 87 82 255 
6.815 9.691 7.414 133 122 114 255 
7.099 9.741 7.48 126 120 112 255 
7.252 9.651 7.408 115 115 114 255 
6.968 9.881 7.476 95 83 69 255 
7.029 9.833 7.505 133 122 114 255 
9.568 5.437 7.7 59 50 46 255 
9.661 5.521 7.702 56 48 46 255 
9.655 5.681 7.703 130 119 112 255 
9.738 5.931 7.69 109 111 110 255 
9.894 5.937 7.714 121 115 109 255 
9.787 6.117 7.7 115 118 110 255 
9.844 6.101 7.705 115 117 111 255 
8.916 6.322 7.701 67 58 56 255 
9.106 6.353 7.7 118 107 102 255 
9.215 6.326 7.688 128 122 115 255 
9.829 6.204 7.657 107 116 106 255 
8.974 6.535 7.697 119 107 103 255 
9.012 6.477 7.699 80 69 68 255 
8.951 6.633 7.705 124 117 112 255 
9.076 6.612 7.773 134 122 115 255 
8.251 7.17 7.688 106 95 91 255 
7.762 7.353 7.694 45 34 33 255 
7.903 7.328 7.694 39 30 29 255 
8.105 7.295 7.7 40 32 31 255 
8.288 7.238 7.705 82 68 66 255 
8.477 7.239 7.694 133 122 114 255 
7.765 7.489 7.705 50 41 39 255 
7.803 7.576 7.693 53 42 42 255 
8.597 7.49 7.717 56 55 54 255 
8.682 7.573 7.697 49 38 39 255 
7.776 7.717 7.699 49 40 39 255 
7.812 7.682 7.697 49 41 42 255 
8.738 7.62 7.73 47 31 28 255 
7.759 7.849 7.701 98 83 78 255 
7.864 7.937 7.695 108 93 90 255 
7.843 8.096 7.699 129 121 114 255 
8.115 8.159 7.724 134 122 115 255 
8.247 8.159 7.717 49 44 42 255 
7.846 8.224 7.778 120 122 115 255 
8.082 8.311 7.696 129 122 114 255 
8.213 8.202 7.642 134 122 95 255 
7.987 8.45 7.728 129 122 115 255 
8.061 8.497 7.702 129 122 115 255 
7.102 8.732 7.708 91 86 81 255 
7.31 8.768 7.697 75 66 63 255 
7.409 8.741 7.668 134 123 115 255 
7.868 8.657 7.76 107 112 114 255 
7.177 8.914 7.706 119 116 111 255 
7.212 8.898 7.695 130 119 111 255 
7.164 9.023 7.685 96 100 101 255 
6.445 9.563 7.707 42 35 32 255 
6.736 9.592 7.696 134 122 115 255 
6.098 9.718 7.7 46 36 33 255 
6.303 9.687 7.703 37 28 27 255 
6.493 9.639 7.695 41 32 31 255 
6.689 9.644 7.698 98 87 82 255 
7.095 9.763 7.696 128 120 113 255 
6.799 9.927 7.775 37 31 31 255 
6.981 9.883 7.682 82 75 74 255 
7.038 9.853 7.701 131 121 112 255 
9.582 5.783 7.976 114 122 110 255 
9.646 5.696 7.91 131 121 114 255 
9.502 5.904 7.963 118 110 103 255 
9.678 5.803 7.986 135 123 114 255 
9.891 5.934 7.899 116 113 107 255 
9.338 6.116 7.964 116 108 103 255 
9.416 6.028 7.947 102 108 96 255 
9.785 6.097 7.889 108 113 107 255 
9.848 6.107 7.899 107 111 107 255 
8.919 6.323 7.898 69 59 60 255 
9.109 6.351 7.901 120 110 104 255 
9.235 6.27 7.937 114 111 108 255 
8.98 6.538 7.898 118 107 101 255 
9.014 6.474 7.88 88 80 74 255 
8.897 6.695 7.95 122 115 107 255 
9.067 6.725 7.921 116 108 108 255 
8.73 6.919 7.962 115 112 105 255 
8.825 6.814 7.95 109 102 100 255 
8.252 7.173 7.896 104 93 87 255 
8.556 7.136 7.968 119 115 112 255 
8.634 7.054 7.955 115 109 101 255 
7.762 7.35 7.903 43 33 34 255 
7.904 7.328 7.896 38 30 30 255 
8.114 7.296 7.897 42 32 30 255 
8.293 7.239 7.9 81 68 65 255 
8.478 7.237 7.892 132 122 114 255 
7.769 7.496 7.9 49 40 38 255 
7.802 7.575 7.919 48 37 34 255 
8.583 7.458 7.868 91 77 70 255 
8.633 7.555 7.896 55 42 41 255 
7.777 7.719 7.898 50 42 39 255 
7.812 7.682 7.895 48 42 40 255 
8.718 7.638 7.897 55 45 45 255 
7.758 7.843 7.903 91 81 81 255 
7.858 7.929 7.906 102 90 90 255 
7.783 8.18 7.986 129 118 113 255 
7.837 8.1 7.899 125 119 111 255 
8.133 8.123 7.901 89 52 49 255 
8.231 8.156 7.915 57 44 42 255 
7.702 8.307 7.965 127 116 106 255 
7.908 8.318 7.857 131 119 114 255 
8.095 8.294 7.901 127 122 114 255 
7.539 8.519 7.966 119 117 106 255 
7.625 8.426 7.952 111 103 107 255 
7.978 8.475 7.919 123 119 113 255 
8.051 8.505 7.9 123 122 114 255 
7.109 8.73 7.898 91 82 77 255 
7.307 8.762 7.905 75 68 64 255 
7.437 8.665 7.95 133 120 106 255 
7.932 8.632 7.951 115 117 113 255 
8.058 8.681 7.845 118 120 115 255 
7.166 8.9 7.912 128 118 110 255 
7.215 8.914 7.884 132 123 114 255 
7.115 9.088 7.949 109 107 105 255 
6.942 9.313 7.967 123 111 100 255 
7.022 9.229 7.946 101 103 99 255 
6.44 9.575 7.883 39 30 27 255 
6.763 9.547 7.957 126 121 115 255 
6.849 9.456 7.959 113 109 108 255 
6.098 9.716 7.903 44 34 34 255 
6.306 9.687 7.9 42 31 30 255 
6.496 9.641 7.901 39 30 28 255 
6.687 9.642 7.896 98 88 81 255 
6.983 9.643 7.997 113 122 110 255 
7.102 9.779 7.895 131 121 114 255 
6.788 9.911 7.924 39 31 30 255 
6.922 9.917 7.907 54 40 42 255 
7.035 9.867 7.9 125 115 106 255 
6.877 10.066 7.881 37 32 30 255 
9.577 5.777 8.069 132 121 114 255 
9.639 5.696 8.096 134 123 114 255 
9.496 5.897 8.075 132 121 114 255 
9.601 5.878 8.155 126 123 116 255 
9.904 5.934 8.033 117 112 105 255 
9.327 6.115 8.073 131 120 114 255 
9.414 6.012 8.082 133 121 115 255 
9.764 6.054 8.042 121 118 101 255 
9.845 6.106 8.042 109 113 106 255 
8.915 6.323 8.101 67 56 57 255 
9.114 6.347 8.099 123 112 105 255 
9.236 6.258 8.092 134 123 115 255 
8.968 6.53 8.099 120 108 103 255 
9.012 6.462 8.081 71 64 62 255 
8.881 6.703 8.08 130 120 114 255 
8.724 6.909 8.073 130 120 114 255 
8.809 6.821 8.096 130 122 116 255 
8.252 7.172 8.078 110 100 93 255 
8.557 7.132 8.074 130 121 114 255 
8.626 7.043 8.074 129 120 114 255 
7.762 7.35 8.098 41 35 34 255 
7.894 7.329 8.102 42 33 32 255 
8.102 7.299 8.108 42 32 30 255 
8.286 7.24 8.092 78 70 70 255 
8.467 7.24 8.104 133 122 115 255 
7.768 7.489 8.1 50 43 40 255 
7.804 7.587 8.09 51 45 45 255 
8.64 7.553 8.017 51 38 41 255 
7.777 7.719 8.091 50 38 37 255 
7.814 7.684 8.096 50 39 37 255 
8.714 7.673 8.026 44 35 31 255 
7.758 7.843 8.104 99 84 77 255 
7.864 7.936 8.104 110 95 90 255 
7.781 8.174 8.061 132 120 115 255 
7.838 8.095 8.097 132 121 114 255 
8.155 8.191 8.021 134 123 115 255 
8.229 8.153 8.051 49 41 42 255 
7.69 8.306 8.072 131 122 115 255 
7.851 8.284 8.19 122 121 113 255 
8.076 8.317 8.037 117 113 108 255 
6.856 8.493 8.177 55 48 43 255 
7.531 8.513 8.07 130 121 114 255 
7.612 8.426 8.092 129 117 110 255 
7.959 8.53 8.034 117 115 109 255 
8.019 8.495 8.045 119 115 105 255 
7.108 8.726 8.098 85 79 75 255 
7.31 8.759 8.096 81 72 65 255 
7.437 8.658 8.082 131 120 115 255 
7.929 8.639 8.022 108 115 112 255 
7.158 8.911 8.095 127 118 113 255 
7.21 8.886 8.101 131 121 113 255 
6.988 9.196 8.025 135 123 116 255 
7.096 9.096 8.081 128 119 113 255 
6.933 9.311 8.076 130 121 114 255 
7.016 9.213 8.074 135 123 116 255 
6.444 9.572 8.103 41 33 34 255 
6.758 9.541 8.062 134 123 116 255 
6.837 9.453 8.08 132 121 115 255 
6.102 9.717 8.099 48 34 31 255 
6.305 9.687 8.104 40 30 28 255 
6.493 9.64 8.1 39 32 31 255 
6.68 9.642 8.105 97 88 82 255 
7.103 9.785 8.021 134 122 115 255 
6.958 9.873 8.025 77 78 73 255 
7.033 9.861 8.026 124 116 104 255 
6.865 10.056 8.032 38 32 28 255 
9.653 5.684 8.3 131 122 113 255 
9.721 5.899 8.299 111 118 108 255 
9.907 5.928 8.342 128 121 113 255 
9.84 6.104 8.348 116 118 109 255 
8.921 6.321 8.294 73 61 59 255 
9.11 6.353 8.301 123 111 105 255 
9.215 6.327 8.316 126 120 115 255 
8.978 6.539 8.297 122 110 104 255 
9.009 6.466 8.303 86 78 78 255 
9.276 6.502 8.322 135 123 116 255 
8.95 6.632 8.298 124 117 112 255 
9.013 6.601 8.216 135 123 116 255 
8.943 6.932 8.305 105 105 106 255 
8.251 7.174 8.317 98 89 88 255 
8.892 7.02 8.375 100 113 113 255 
7.764 7.347 8.291 42 34 33 255 
7.903 7.328 8.301 42 34 33 255 
8.102 7.298 8.305 42 34 32 255 
8.279 7.238 8.298 72 62 58 255 
8.478 7.24 8.29 134 123 115 255 
7.765 7.485 8.305 53 45 44 255 
7.801 7.565 8.303 52 45 44 255 
8.62 7.542 8.325 51 45 42 255 
7.779 7.724 8.307 47 35 36 255 
7.816 7.678 8.297 48 41 38 255 
8.691 7.674 8.344 44 31 32 255 
7.761 7.849 8.301 95 85 84 255 
7.856 7.923 8.301 97 89 90 255 
7.85 8.091 8.299 129 120 113 255 
8.184 8.189 8.353 129 123 102 255 
8.222 8.146 8.342 48 36 37 255 
7.903 8.268 8.249 122 122 113 255 
8.107 8.302 8.357 130 122 115 255 
6.672 8.592 8.329 114 110 112 255 
6.801 8.584 8.232 136 124 117 255 
7.736 8.592 8.249 104 109 109 255 
7.963 8.506 8.333 128 122 115 255 
8.005 8.472 8.342 132 122 114 255 
6.691 8.656 8.348 100 106 104 255 
6.849 8.632 8.236 136 124 117 255 
7.102 8.729 8.3 91 82 74 255 
7.305 8.766 8.298 76 67 62 255 
7.415 8.753 8.311 135 123 116 255 
7.928 8.645 8.344 102 111 109 255 
7.176 8.917 8.289 117 111 107 255 
7.209 8.893 8.309 129 120 111 255 
7.437 8.812 8.322 113 96 84 255 
7.166 9.025 8.307 87 94 95 255 
6.444 9.566 8.306 46 37 34 255 
6.74 9.596 8.34 135 123 116 255 
6.097 9.718 8.299 43 31 29 255 
6.305 9.684 8.303 39 31 30 255 
6.498 9.64 8.295 42 34 33 255 
6.685 9.643 8.302 97 88 85 255 
6.8 9.666 8.294 135 123 116 255 
7.069 9.79 8.313 135 123 116 255 
6.788 9.868 8.311 44 34 34 255 
6.931 9.923 8.322 63 53 50 255 
7.054 9.854 8.345 132 121 110 255 
6.872 10.021 8.379 40 28 27 255 
9.652 5.687 8.5 134 122 115 255 
9.714 5.886 8.468 105 111 103 255 
9.904 5.935 8.492 116 111 105 255 
9.788 6.149 8.485 111 111 111 255 
9.843 6.098 8.5 114 118 110 255 
8.919 6.318 8.491 68 60 62 255 
9.107 6.354 8.501 123 113 106 255 
9.218 6.332 8.51 132 124 114 255 
8.975 6.529 8.494 120 109 103 255 
9.011 6.488 8.499 94 87 82 255 
9.291 6.504 8.525 135 124 116 255 
8.95 6.628 8.513 129 121 115 255 
9.015 6.605 8.534 136 124 116 255 
8.892 6.98 8.469 96 105 106 255 
8.25 7.173 8.489 93 84 86 255 
8.854 7.078 8.508 98 105 110 255 
7.762 7.349 8.497 43 37 36 255 
7.901 7.327 8.495 41 34 34 255 
8.112 7.296 8.503 39 32 32 255 
8.289 7.237 8.509 77 67 65 255 
8.474 7.238 8.507 134 124 116 255 
7.765 7.485 8.501 57 46 44 255 
7.803 7.571 8.504 59 48 48 255 
8.592 7.506 8.413 38 32 36 255 
8.659 7.574 8.44 41 33 33 255 
7.779 7.708 8.502 47 41 38 255 
7.815 7.681 8.503 50 40 38 255 
8.712 7.74 8.516 41 30 28 255 
7.763 7.846 8.506 93 83 78 255 
7.861 7.93 8.508 104 90 86 255 
7.845 8.102 8.504 124 118 112 255 
8.146 8.157 8.507 107 101 91 255 
8.224 8.151 8.474 51 44 45 255 
7.892 8.286 8.511 113 112 106 255 
8.099 8.309 8.502 125 120 112 255 
8.201 8.208 8.55 135 124 112 255 
7.968 8.513 8.496 126 122 114 255 
8.011 8.479 8.514 122 122 112 255 
7.106 8.734 8.5 91 81 77 255 
7.313 8.765 8.501 79 70 66 255 
7.408 8.748 8.438 136 124 117 255 
7.924 8.64 8.51 94 102 106 255 
7.177 8.903 8.507 117 112 109 255 
7.212 8.922 8.487 132 123 115 255 
7.165 9.03 8.5 87 93 94 255 
6.44 9.579 8.493 38 34 34 255 
6.734 9.597 8.505 135 124 116 255 
6.103 9.716 8.496 40 28 27 255 
6.307 9.686 8.503 40 31 29 255 
6.496 9.641 8.492 44 36 34 255 
6.68 9.645 8.506 95 86 81 255 
6.863 9.744 8.51 135 124 116 255 
7.13 9.8 8.533 135 123 116 255 
6.79 9.914 8.5 45 28 29 255 
6.932 9.918 8.489 61 55 54 255 
7.065 9.84 8.495 130 121 113 255 
6.898 10.015 8.498 38 30 29 255 
9.651 5.682 8.697 135 123 114 255 
9.691 5.853 8.649 96 99 101 255 
9.908 5.933 8.681 119 114 109 255 
9.798 6.154 8.665 111 119 105 255 
9.844 6.091 8.703 106 109 104 255 
8.914 6.319 8.702 72 60 58 255 
9.113 6.352 8.696 124 112 106 255 
9.221 6.332 8.687 127 122 114 255 
8.973 6.525 8.695 118 107 102 255 
9.012 6.483 8.712 84 73 76 255 
9.31 6.498 8.728 136 124 117 255 
8.948 6.629 8.703 129 121 115 255 
9.013 6.6 8.796 136 124 117 255 
8.255 7.175 8.686 94 83 87 255 
8.851 7.067 8.639 96 103 107 255 
7.764 7.348 8.697 44 37 35 255 
7.905 7.326 8.7 42 36 35 255 
8.105 7.298 8.7 40 32 32 255 
8.284 7.238 8.706 75 64 65 255 
8.472 7.239 8.703 134 124 116 255 
8.766 7.234 8.773 105 106 106 255 
7.769 7.493 8.703 55 48 47 255 
7.803 7.582 8.688 54 52 49 255 
8.592 7.517 8.732 51 47 40 255 
8.639 7.558 8.771 44 34 33 255 
7.779 7.717 8.705 47 39 37 255 
7.816 7.68 8.696 50 40 39 255 
7.763 7.842 8.701 95 87 85 255 
7.861 7.928 8.706 103 99 100 255 
7.851 8.094 8.7 124 117 112 255 
8.198 8.185 8.621 77 80 80 255 
8.224 8.156 8.698 67 58 48 255 
7.907 8.306 8.68 103 106 104 255 
8.122 8.303 8.694 124 117 111 255 
7.961 8.523 8.695 115 115 109 255 
8.02 8.469 8.72 109 109 106 255 
7.108 8.734 8.701 94 85 80 255 
7.31 8.766 8.699 84 75 68 255 
7.414 8.756 8.701 135 124 117 255 
7.912 8.646 8.688 92 99 102 255 
7.176 8.898 8.701 119 116 110 255 
7.214 8.926 8.7 129 121 114 255 
7.167 9.029 8.703 90 93 97 255 
6.441 9.571 8.696 43 36 35 255 
6.734 9.596 8.726 136 124 117 255 
6.097 9.718 8.702 44 35 33 255 
6.306 9.686 8.697 40 33 32 255 
6.494 9.64 8.699 43 35 35 255 
6.683 9.644 8.698 98 89 84 255 
6.788 9.911 8.72 43 33 39 255 
6.905 9.916 8.697 72 58 51 255 
7.058 9.853 8.704 129 119 110 255 
6.888 10.075 8.691 42 35 34 255 
9.585 5.744 8.988 135 125 116 255 
9.659 5.692 8.909 131 121 114 255 
9.513 5.893 8.976 113 107 102 255 
9.669 5.908 8.949 96 97 98 255 
9.918 5.933 8.898 123 117 109 255 
9.335 6.119 8.976 117 113 105 255 
9.522 6.097 8.955 90 94 97 255 
9.647 6.041 8.95 93 98 102 255 
9.851 6.093 8.898 90 96 97 255 
8.915 6.323 8.901 66 53 51 255 
9.103 6.353 8.909 121 110 104 255 
9.29 6.307 8.952 109 109 106 255 
9.444 6.258 8.944 94 100 101 255 
8.97 6.529 8.9 122 111 105 255 
9.03 6.476 8.893 75 68 70 255 
9.317 6.451 8.908 136 124 117 255 
8.896 6.699 8.953 118 113 104 255 
9.079 6.719 8.959 114 112 109 255 
8.73 6.915 8.975 114 110 104 255 
8.918 6.915 8.967 93 96 98 255 
9.022 6.848 8.952 94 98 100 255 
8.254 7.174 8.896 95 90 87 255 
8.56 7.141 8.972 118 110 103 255 
8.712 7.099 8.963 100 101 99 255 
8.86 7.041 8.953 93 97 102 255 
7.761 7.352 8.901 44 37 37 255 
7.901 7.327 8.896 42 36 35 255 
8.106 7.297 8.904 40 32 30 255 
8.29 7.239 8.895 78 63 59 255 
8.478 7.24 8.904 134 123 116 255 
8.683 7.273 8.947 107 107 106 255 
8.858 7.291 8.976 96 98 103 255 
7.768 7.491 8.9 54 46 46 255 
7.804 7.576 8.897 56 51 52 255 
8.582 7.447 8.888 82 90 85 255 
8.633 7.548 8.905 52 40 39 255 
7.781 7.714 8.894 49 41 41 255 
7.816 7.679 8.899 48 39 39 255 
8.689 7.73 8.926 36 30 30 255 
7.762 7.843 8.903 86 74 69 255 
7.856 7.923 8.894 110 89 83 255 
7.763 8.158 8.958 135 125 115 255 
7.846 8.096 8.91 125 117 110 255 
8.153 8.123 8.888 91 83 78 255 
8.227 8.167 8.893 68 62 58 255 
7.709 8.309 8.976 122 119 104 255 
7.885 8.286 8.884 91 93 97 255 
8.122 8.311 8.898 118 114 111 255 
8.205 8.204 8.887 136 124 116 255 
7.541 8.53 8.973 119 116 112 255 
7.625 8.436 8.97 120 112 106 255 
7.958 8.53 8.899 94 99 100 255 
8.015 8.468 8.891 96 100 98 255 
7.11 8.729 8.903 84 74 73 255 
7.312 8.764 8.902 82 74 70 255 
7.443 8.688 8.938 123 118 108 255 
7.907 8.652 8.905 93 99 101 255 
7.164 8.901 8.896 123 117 109 255 
7.21 8.904 8.919 132 122 114 255 
7.118 9.082 8.951 106 103 99 255 
6.942 9.318 8.974 108 107 101 255 
7.039 9.242 8.976 104 99 97 255 
6.451 9.575 8.91 46 39 37 255 
6.757 9.563 8.966 132 122 115 255 
6.844 9.465 8.975 113 109 104 255 
6.099 9.719 8.907 45 36 36 255 
6.305 9.685 8.899 41 31 30 255 
6.5 9.643 8.896 42 34 33 255 
6.677 9.642 8.895 96 87 83 255 
6.83 9.667 8.976 137 125 117 255 
6.777 9.859 8.904 50 41 39 255 
6.92 9.928 8.904 55 46 45 255 
7.055 9.858 8.901 129 120 112 255 
6.72 10.059 8.892 37 31 34 255 
6.89 10.09 8.906 44 34 34 255 
9.551 5.737 9.11 72 63 59 255 
9.373 5.955 9.124 66 56 52 255 
9.464 5.881 9.091 83 76 72 255 
9.67 5.884 9.012 101 102 92 255 
9.91 5.922 9.009 137 125 118 255 
9.188 6.173 9.108 67 57 49 255 
9.29 6.097 9.099 77 69 65 255 
9.469 6.073 9.014 126 125 109 255 
9.849 6.042 9.023 96 99 98 255 
8.918 6.319 9.103 50 40 38 255 
9.114 6.315 9.1 71 63 62 255 
9.222 6.233 9.024 118 118 110 255 
8.946 6.526 9.099 64 57 55 255 
9.017 6.468 9.058 68 66 65 255 
8.775 6.762 9.111 73 63 59 255 
8.855 6.682 9.09 81 74 69 255 
9.096 6.692 9.018 116 109 108 255 
8.59 6.979 9.111 67 65 54 255 
8.693 6.891 9.097 82 72 69 255 
8.909 6.884 9.016 119 108 92 255 
8.254 7.175 9.101 44 37 35 255 
8.531 7.102 9.103 77 67 64 255 
8.63 7.026 9.044 114 102 95 255 
8.825 7.014 9.012 90 84 97 255 
7.763 7.346 9.098 43 35 36 255 
7.898 7.328 9.097 41 35 33 255 
8.107 7.295 9.105 39 30 29 255 
8.29 7.24 9.097 52 43 41 255 
8.441 7.238 9.094 78 71 70 255 
7.768 7.482 9.101 50 42 43 255 
7.804 7.574 9.092 52 40 42 255 
7.782 7.714 9.094 52 40 38 255 
7.818 7.679 9.099 52 42 39 255 
7.761 7.844 9.103 44 37 36 255 
7.854 7.927 9.099 55 48 45 255 
7.756 8.137 9.118 66 56 53 255 
7.834 8.075 9.078 82 73 68 255 
8.221 8.152 9.058 54 42 43 255 
7.571 8.362 9.133 63 54 51 255 
7.665 8.283 9.088 75 65 63 255 
7.868 8.396 9.006 84 75 81 255 
8.116 8.293 9.053 124 117 110 255 
7.383 8.576 9.123 58 43 44 255 
7.493 8.499 9.094 78 69 65 255 
7.607 8.411 9.026 110 104 99 255 
7.947 8.522 9.048 95 98 97 255 
8.023 8.435 9.033 85 84 90 255 
7.109 8.732 9.098 49 41 41 255 
7.313 8.717 9.099 62 53 50 255 
7.437 8.634 9.028 109 101 94 255 
7.899 8.655 9.035 90 97 97 255 
7.13 8.929 9.111 65 56 52 255 
7.208 8.887 9.069 85 80 74 255 
6.967 9.151 9.135 59 52 49 255 
7.063 9.084 9.078 85 80 76 255 
6.779 9.363 9.112 63 49 45 255 
6.887 9.298 9.097 79 71 66 255 
7.005 9.203 9.045 110 110 100 255 
6.439 9.579 9.111 38 32 31 255 
6.727 9.501 9.109 71 63 60 255 
6.826 9.434 9.039 108 102 98 255 
6.098 9.721 9.103 41 34 33 255 
6.306 9.686 9.106 39 32 32 255 
6.496 9.64 9.092 40 32 31 255 
6.647 9.638 9.084 67 60 57 255 
6.796 9.915 9.007 52 37 43 255 
6.925 9.932 9.047 59 52 51 255 
7.046 9.852 9.043 133 124 117 255 
6.911 10.074 9.066 44 36 36 255 
9.545 5.74 9.3 57 49 47 255 
9.375 5.969 9.304 63 56 52 255 
9.45 5.87 9.298 63 54 51 255 
9.188 6.193 9.325 63 57 54 255 
9.279 6.097 9.302 62 53 50 255 
8.916 6.324 9.302 54 46 43 255 
9.117 6.311 9.3 52 42 39 255 
9.203 6.205 9.303 55 59 55 255 
8.936 6.543 9.297 52 43 41 255 
9.009 6.422 9.293 59 45 42 255 
8.774 6.763 9.301 61 50 46 255 
8.848 6.669 9.301 62 53 49 255 
8.59 6.994 9.258 58 46 46 255 
8.678 6.896 9.299 61 51 49 255 
8.253 7.175 9.315 39 33 32 255 
8.532 7.099 9.303 62 52 48 255 
8.603 7.008 9.33 57 49 48 255 
7.765 7.348 9.306 46 39 37 255 
7.901 7.323 9.292 40 33 33 255 
8.105 7.296 9.301 40 34 33 255 
8.284 7.24 9.295 41 34 34 255 
8.43 7.24 9.298 44 39 37 255 
7.768 7.49 9.293 50 40 40 255 
7.802 7.571 9.323 49 49 42 255 
7.781 7.712 9.307 48 42 42 255 
7.815 7.679 9.299 50 43 45 255 
7.764 7.841 9.301 47 41 39 255 
7.848 7.924 9.307 46 38 38 255 
7.572 8.168 9.33 51 44 41 255 
7.74 8.138 9.297 56 48 46 255 
7.815 8.04 9.307 54 47 44 255 
6.923 8.354 9.386 47 40 37 255 
7.572 8.36 9.297 57 52 50 255 
7.648 8.264 9.299 59 49 44 255 
6.866 8.42 9.393 44 35 36 255 
7.384 8.586 9.305 55 47 48 255 
7.474 8.494 9.3 55 47 43 255 
7.113 8.728 9.3 53 45 42 255 
7.315 8.707 9.301 52 42 41 255 
7.129 8.931 9.3 54 43 40 255 
7.204 8.812 9.278 47 44 36 255 
6.965 9.16 9.301 57 46 43 255 
7.045 9.06 9.301 55 46 41 255 
6.787 9.388 9.284 56 51 49 255 
6.868 9.294 9.304 54 45 42 255 
6.445 9.578 9.304 45 38 34 255 
