ply
format ascii 1.0
element vertex 1730
property float x
property float y
property float z
property uchar red
property uchar green
property uchar blue
end_header
9.431916 2.402587 6.687600
9.864789 2.724792 6.633060
9.762865 2.645591 6.624980
10.097445 2.917939 6.697700
9.991693 2.823533 6.630030
10.203494 2.991137 6.637100
10.108878 2.894867 6.537110
10.424355 3.160887 6.637100
10.327494 3.080747 6.601750
10.662230 3.341986 6.637100
10.570405 3.262926 6.620940
10.863751 3.667021 6.630030
10.783257 3.427514 6.631040
11.027670 4.153147 6.623970
10.952736 4.021798 6.646190
10.927519 3.802255 6.628010
10.932833 3.638693 6.615890
10.992645 3.406196 6.619930
11.045538 3.235217 6.673460
11.120039 3.325146 6.589630
11.194007 3.236281 6.640130
5.037284 2.380616 6.777490
5.190107 2.503962 6.769410
5.089376 2.411646 6.757290
5.412791 2.687879 6.791630
5.286536 2.542682 6.823950
5.626541 2.860560 6.819910
5.531770 2.775398 6.835060
5.841075 3.049414 6.750220
5.752463 2.957268 6.834050
5.958246 3.121757 6.830010
5.861470 3.035557 6.849200
6.187999 3.305773 6.826980
6.091153 3.224622 6.843140
6.245118 0.444961 6.869400
6.417837 3.483729 6.821930
6.319938 3.405594 6.833040
6.328071 0.436019 6.857280
6.436384 0.419349 6.868390
6.648572 3.669779 6.742140
6.535807 3.571235 6.827990
6.696685 0.441166 6.915860
6.591096 0.407368 6.880510
6.755574 3.747030 6.749210
6.761135 0.455197 6.848190
6.824920 0.372249 6.897680
6.982551 3.912825 6.742140
6.925570 3.797889 6.830010
7.033259 0.498391 6.894650
6.930578 0.400997 6.893640
7.233540 4.095118 6.754260
7.131560 4.019956 6.743150
7.240822 0.680076 6.890610
7.138410 0.563495 6.899700
7.345577 4.173449 6.738100
7.441330 0.860653 6.884550
7.391081 0.770053 6.880510
7.617230 4.322697 6.813850
7.476648 4.263158 6.748200
7.676974 1.056873 6.882530
7.596540 0.957770 6.816880
7.567884 0.767471 6.926970
7.663474 4.338494 6.821930
7.821159 1.147775 6.826980
7.808740 1.024369 6.887580
7.872391 0.661623 6.858290
8.013898 1.306021 6.826980
7.938429 1.213048 6.850210
7.950028 1.033413 6.899700
8.018385 0.767701 6.882530
8.251603 1.499239 6.841120
8.161897 1.413138 6.848190
8.152040 1.178657 6.835060
8.232163 0.938363 6.868390
8.128388 0.847015 6.913840
8.449814 5.027250 6.762340
8.478759 1.724632 6.856270
8.375548 1.592889 6.842130
8.410699 1.390350 6.774460
8.440708 1.122082 6.834050
8.356248 1.021913 6.888590
8.606775 5.143583 6.861320
8.518891 5.071649 6.796680
8.649374 2.309842 6.846170
8.623898 2.181203 6.847180
8.587699 1.952416 6.858290
8.537567 1.781009 6.847180
8.559345 1.668182 6.928990
8.653137 1.316967 6.804760
8.589928 1.214065 6.833040
8.666735 5.189875 6.895660
8.779666 2.310651 6.858290
8.837766 2.273078 6.879500
8.816891 1.380870 6.833040
9.000961 2.304650 6.872430
8.977330 2.260886 6.888590
9.017738 1.537209 6.827990
8.914748 1.462034 6.783550
9.243164 5.575701 6.816880
9.158224 2.327048 6.871420
9.205864 2.242865 6.899700
9.222638 1.692595 6.815870
9.145623 1.637985 6.830010
9.302325 5.606830 6.830010
9.400581 2.404169 6.868390
9.614457 2.567761 6.868390
9.509588 2.482459 6.824960
9.842332 2.741650 6.852230
9.750535 2.660570 6.847180
10.072127 2.922636 6.844150
9.976305 2.840490 6.848190
10.192131 3.009160 6.846170
10.140256 2.890254 6.923940
10.409009 3.174814 6.846170
10.337523 3.085938 6.859300
10.471774 2.658520 6.842130
10.638748 3.359840 6.839100
10.560291 3.263795 6.854250
10.659729 3.014679 6.799710
10.608269 2.793759 6.861320
10.508689 2.691359 6.894650
10.863277 3.628631 6.841120
10.776972 3.443588 6.847180
10.798478 3.205505 6.758300
10.853142 2.980006 6.829000
10.754544 2.879640 6.862330
11.032578 4.163317 6.838090
11.011240 4.027666 6.849200
10.981729 3.826244 6.852230
10.933003 3.626574 6.870410
10.922731 3.494108 6.909800
11.047986 3.132222 6.791630
10.988365 3.061692 6.837080
11.199212 3.225242 6.833040
11.373214 3.350904 6.863340
11.322175 3.316858 6.839100
5.238709 2.495549 7.034030
5.433045 2.684121 7.039080
5.283873 2.516382 7.036050
5.633652 2.857629 7.033020
5.533875 2.769367 7.028980
5.752589 2.948178 7.031000
5.960393 3.112696 7.029990
5.865538 3.033594 7.044130
6.193147 3.298774 7.025950
6.092261 3.217567 7.034030
6.223896 0.445675 6.982520
6.428006 3.478820 7.035040
6.326068 3.400630 7.031000
6.335182 0.433088 7.008780
6.433354 0.419307 6.997670
6.533942 3.560097 7.028980
6.686656 0.435975 7.037060
6.595164 0.405405 7.006760
6.724835 0.450650 7.010800
6.829100 0.362207 7.021910
6.933734 3.791942 7.022920
7.032446 0.484238 7.020900
6.930536 0.404027 7.012820
7.267249 0.668324 7.027970
7.151384 0.574787 7.013830
7.396186 0.766084 7.009790
7.627301 4.324858 7.036050
7.686063 1.057000 7.121900
7.661004 0.970791 7.071400
7.665198 4.359730 7.042110
7.820854 1.097265 7.020900
7.734961 1.027379 7.024940
8.065727 1.283513 7.018880
7.965809 1.205350 7.024940
8.030503 0.767871 6.937070
8.297430 1.472606 7.094630
8.201621 1.389450 7.021910
8.230354 0.923186 6.960300
8.468372 1.817416 7.037060
8.395483 1.539632 7.017870
8.305678 1.460600 6.965350
8.457233 1.096051 6.970400
8.362322 1.020988 6.971410
8.616719 5.154833 6.967370
8.636288 2.306629 7.020900
8.618863 2.180123 6.996660
8.586449 1.969570 7.006760
8.543683 1.777054 7.011810
8.534450 1.642582 7.023930
8.692021 1.281147 7.019890
8.573084 1.190597 6.974440
8.825504 5.321384 7.121900
8.724660 5.237148 7.036050
8.779807 2.300552 7.005750
8.851905 2.273276 7.034030
8.787914 1.358243 6.973430
9.043448 2.300193 6.993630
8.983375 2.261980 7.028980
9.020725 1.540281 6.976460
8.930793 1.470339 6.963330
9.246109 5.581802 7.040090
9.138054 2.324746 6.997670
9.224310 2.223931 7.039080
9.174657 1.656572 6.948180
9.303321 5.607854 7.036050
9.426674 2.343928 7.017870
9.326826 2.260716 7.049180
9.660566 2.520931 7.026960
9.551657 2.435572 7.015850
9.892381 2.701945 7.036050
9.791467 2.622758 7.022920
10.092339 2.921908 7.110790
9.999270 2.787276 7.025950
10.214072 2.956941 7.027970
10.125178 2.884993 7.017870
10.459969 3.142193 7.038070
10.361005 3.068084 7.029990
10.693819 3.322225 7.063320
10.595920 3.244091 7.026960
10.619674 2.772706 6.991610
10.880926 3.956149 7.052210
10.869720 3.745892 7.083520
10.863836 3.660962 7.048170
10.792798 3.395324 7.028980
10.698967 3.315226 6.945150
10.849497 2.951673 7.048170
10.748583 2.872486 7.013830
11.033588 4.163331 7.029990
10.996106 4.026444 7.026960
10.981899 3.814125 7.023930
10.943116 3.625706 7.014840
10.932774 3.498289 7.020900
11.074328 3.126529 7.031000
10.969402 3.045266 7.027970
11.202213 3.227304 7.028980
11.402318 3.364442 7.044130
11.376794 3.311560 7.060290
5.235581 2.502576 7.196640
5.432932 2.692200 7.241080
5.279706 2.525415 7.222900
5.632656 2.856605 7.227950
5.534814 2.774431 7.230980
5.755591 2.950241 7.230980
5.965428 3.113776 7.230980
5.866548 3.033608 7.242090
6.195224 3.294762 7.227950
6.096301 3.217624 7.234010
6.431064 3.476843 7.231990
6.327120 3.397614 7.233000
6.537014 3.557110 7.234010
6.834591 3.658235 7.221890
6.870633 0.353696 7.245120
6.937074 3.769766 7.212800
6.879055 3.656835 7.194620
7.040483 0.487380 7.245120
6.939555 0.409204 7.249160
7.190435 3.926839 7.206740
7.084500 3.845562 7.205730
7.262298 0.661184 7.234010
7.157429 0.575882 7.243100
7.416290 4.100700 7.206740
7.316315 4.026577 7.206740
7.499036 0.851358 7.286530
7.399174 0.769156 7.236030
7.621270 4.322753 7.229970
7.546195 4.201503 7.205730
7.643783 1.119035 7.251180
7.631017 0.948150 7.238050
7.673601 4.336615 7.204720
7.692696 4.271225 7.246130
7.823644 1.114476 7.202700
7.722885 1.024180 7.238050
8.064703 1.284508 7.238050
7.963845 1.201282 7.231990
8.292423 1.469506 7.178460
8.179615 1.373992 7.227950
8.468513 1.807317 7.227950
8.383449 1.533403 7.228960
8.641366 2.304679 7.230980
8.611582 2.195173 7.231990
8.582452 1.966484 7.235020
8.540653 1.777012 7.234010
8.524393 1.639411 7.235020
8.835490 5.329605 7.198660
8.788631 5.285516 7.171390
8.741614 2.286887 7.248150
8.854948 2.272308 7.227950
8.905534 5.377047 7.259260
9.083914 2.295707 7.213810
8.979336 2.261924 7.224920
9.236094 5.575602 7.206740
9.146190 2.320819 7.248150
9.233484 2.217998 7.234010
9.299295 5.606787 7.223910
9.432790 2.339973 7.235020
9.335817 2.267912 7.230980
9.662586 2.520959 7.227950
9.556664 2.438672 7.233000
9.891301 2.706980 7.212800
9.791467 2.622758 7.234010
10.037114 2.970632 7.251180
9.999256 2.788286 7.224920
10.218980 2.967111 7.217850
10.119118 2.884909 7.250170
10.456000 3.137087 7.231990
10.358045 3.062992 7.238050
10.685782 3.319083 7.259260
10.594924 3.243067 7.231990
10.864803 3.664006 7.245120
10.786795 3.391200 7.229970
11.032564 4.164327 7.230980
11.008112 4.034693 7.221890
10.980959 3.809062 7.240070
10.939860 3.641822 7.233000
10.929744 3.498246 7.231990
11.070317 3.124453 7.178460
10.987341 3.062688 7.160280
11.199254 3.222212 7.186540
11.420454 3.367725 7.200680
11.405043 3.313975 7.206740
11.518617 3.282227 7.201690
5.229592 2.497442 7.441060
5.423815 2.694093 7.453180
5.277700 2.524377 7.428940
5.634662 2.857643 7.421870
5.534744 2.779480 7.432980
5.753628 2.946173 7.433990
5.966438 3.113790 7.432980
5.870601 3.032654 7.430960
6.196276 3.291747 7.432980
6.099359 3.215646 7.433990
6.435118 3.475889 7.427930
6.333194 3.396689 7.437020
6.539062 3.555118 7.439040
6.864602 0.351591 7.428940
6.928656 3.793891 7.428940
7.039516 0.484337 7.437020
6.940593 0.407198 7.440050
7.269297 0.666333 7.424900
7.171398 0.588198 7.448130
7.452261 0.801210 7.471360
7.626234 4.328883 7.431970
7.631523 1.128965 7.431970
7.600105 0.919436 7.423890
7.508252 0.842396 7.430960
7.659096 4.362675 7.431970
7.840615 1.128854 7.438030
7.718958 1.016045 7.436010
8.067733 1.284551 7.438030
7.960872 1.197200 7.428940
8.296490 1.467542 7.442070
8.178633 1.371958 7.429950
8.470420 1.815425 7.446110
8.388456 1.536503 7.432980
8.639388 2.301621 7.431970
8.611821 2.178004 7.435000
8.583462 1.966498 7.435000
8.541677 1.776016 7.436010
8.534435 1.643592 7.429950
8.744658 2.285920 7.430960
8.839758 2.275126 7.453180
8.989435 5.444885 7.411770
9.085863 2.300785 7.444090
8.992450 2.263117 7.423890
9.158586 5.556338 7.475400
9.070448 5.502582 7.470350
9.154128 2.331031 7.437020
9.229374 2.222991 7.436010
9.300249 5.610841 7.443080
9.431794 2.338949 7.435000
9.340880 2.266972 7.428940
9.665629 2.519991 7.425910
9.567702 2.443877 7.436010
9.892367 2.702955 7.423890
9.796516 2.622829 7.437020
10.024783 2.985611 7.437020
9.998316 2.783222 7.433990
9.903560 2.697051 7.519840
10.232109 2.967294 7.427930
10.125206 2.882973 7.440050
10.463041 3.139205 7.426920
10.365101 3.064100 7.441060
10.694843 3.321229 7.421870
10.590941 3.238971 7.432980
10.862727 3.668017 7.439040
10.791802 3.394300 7.436010
11.031568 4.163303 7.425910
11.007313 4.019530 7.439040
10.984900 3.816187 7.436010
10.941937 3.637810 7.429950
10.931778 3.497265 7.444090
5.200234 2.502083 7.677400
5.406788 2.683754 7.639020
5.295371 2.560987 7.642050
5.632656 2.856605 7.633970
5.535739 2.780504 7.640030
5.756615 2.949245 7.638010
5.964460 3.110732 7.640030
5.870601 3.032654 7.615790
6.199277 3.293809 7.642050
6.099373 3.214636 7.627910
6.433112 3.474851 7.644070
6.336224 3.396731 7.638010
6.539062 3.555118 7.642050
6.760820 3.732962 7.724870
6.859538 0.352531 7.640030
6.992692 3.909937 7.722850
6.924532 3.799894 7.642050
7.032474 0.482218 7.629930
6.940551 0.410228 7.643060
7.215531 4.082745 7.730930
7.133650 4.014935 7.724870
7.281345 0.671551 7.670330
7.184358 0.600500 7.628920
7.345521 4.177489 7.722850
7.499050 0.850348 7.594580
7.401306 0.761105 7.642050
7.600959 4.330550 7.660230
7.456351 4.269945 7.728910
7.631523 1.128965 7.632960
7.614145 0.926703 7.634980
7.507256 0.841372 7.643060
7.658927 4.374794 7.634980
7.851710 1.130019 7.630940
7.717037 1.008947 7.622860
8.068799 1.280525 7.638010
7.963860 1.200272 7.637000
8.296533 1.464513 7.701640
8.182673 1.372014 7.637000
8.469410 1.815411 7.644070
8.387503 1.532450 7.640030
8.636344 2.302589 7.630940
8.607852 2.172899 7.638010
8.583321 1.976597 7.635990
8.544693 1.777068 7.639020
8.538532 1.639609 7.646090
8.758810 2.285107 7.637000
8.854920 2.274328 7.649120
9.071866 2.290489 7.598620
8.966150 2.265780 7.640030
9.179554 5.573802 7.621850
9.068343 5.508613 7.560240
9.148082 2.329937 7.637000
9.226372 2.220929 7.639020
9.296096 5.618864 7.640030
9.420770 2.332734 7.643060
9.332815 2.265850 7.625890
9.660608 2.517901 7.641040
9.570676 2.447958 7.640030
9.892339 2.704975 7.665280
9.793529 2.619757 7.642050
10.016803 2.978429 7.642050
9.992356 2.776068 7.638010
10.244158 2.972513 7.644070
10.120199 2.879873 7.642050
10.457024 3.136091 7.634980
10.362113 3.061028 7.634980
10.690817 3.320163 7.622860
10.596958 3.242085 7.635990
10.866767 3.668074 7.627910
10.792826 3.393304 7.640030
11.032564 4.164327 7.647100
11.011198 4.030696 7.640030
10.982894 3.815149 7.637000
10.942904 3.640854 7.634980
10.933812 3.496283 7.626900
5.026917 2.399663 7.773350
5.187861 2.520092 7.775370
5.074016 2.426583 7.754160
5.397558 2.693727 7.758200
5.281402 2.548671 7.831930
5.623384 2.869607 7.762240
5.521474 2.789396 7.757190
5.748338 2.963271 7.755170
5.953196 3.121686 7.754160
6.193049 3.305843 7.760220
6.097113 3.231776 7.756180
6.416954 3.474626 7.751130
6.315997 3.398469 7.757190
6.561867 3.585740 7.756180
6.762756 3.739050 7.758200
6.847321 0.359431 7.848090
6.996647 3.916053 7.757190
6.923423 3.806950 7.828900
7.026457 0.479104 7.836980
6.932500 0.408095 7.841020
7.228491 4.095047 7.752140
7.128586 4.015874 7.757190
7.273379 0.663359 7.830920
7.211399 0.617039 7.884450
7.353473 4.186691 7.758200
7.497072 0.847290 7.900610
7.393270 0.757962 7.832940
7.603974 4.331603 7.808700
7.460362 4.272022 7.763250
7.630499 1.129961 7.834960
7.610063 0.929676 7.836980
7.505222 0.842354 7.819810
7.661059 4.366743 7.873340
7.851766 1.125980 7.831930
7.738930 1.032485 7.845060
8.069767 1.283569 7.840010
7.966847 1.203344 7.837990
8.300488 1.470629 7.836980
8.185660 1.375086 7.836980
8.467475 1.809323 7.840010
8.387503 1.532450 7.837990
8.642404 2.302674 7.834960
8.605889 2.168831 7.837990
8.583335 1.975587 7.837990
8.537497 1.786059 7.840010
8.536483 1.641600 7.847080
8.764828 2.288221 7.851120
8.864023 2.273445 7.824860
9.081866 2.297699 7.871320
8.979307 2.263944 7.835970
9.236977 5.584705 7.835970
9.148068 2.330947 7.844050
9.238533 2.218069 7.834960
9.303222 5.614923 7.843040
9.426787 2.335849 7.841020
9.337808 2.269960 7.814760
9.662600 2.519949 7.834960
9.566664 2.445882 7.839000
9.891399 2.699911 7.834960
9.794511 2.621791 7.841020
10.019847 2.977461 7.832940
10.002314 2.786308 7.840010
10.243190 2.969469 7.844050
10.121209 2.879887 7.822840
10.462046 3.138181 7.836980
10.361117 3.060004 7.836980
10.689793 3.321159 7.847080
10.594952 3.241047 7.837990
10.859754 3.663935 7.832940
10.789824 3.391242 7.839000
11.031568 4.163303 7.840010
11.009192 4.029657 7.841020
10.983904 3.815163 7.835970
10.941965 3.635790 7.839000
10.936841 3.496325 7.839000
5.218539 2.493248 7.958180
6.832116 0.363259 8.036960
6.888429 3.781208 7.946060
7.067468 0.507959 8.090490
6.935543 0.407127 8.046050
7.270349 0.663317 8.034940
7.168453 0.582096 8.035950
7.495053 0.847262 8.129880
7.397239 0.763068 8.039990
7.628141 4.336991 7.981410
7.626473 1.128895 8.038980
7.609039 0.930672 8.036960
7.503216 0.841316 8.064230
7.659922 4.375818 7.966260
7.847557 1.138042 8.034940
7.726854 1.029286 8.054130
8.063736 1.281465 8.027870
7.967815 1.206388 8.032920
8.298524 1.466561 8.039990
8.187624 1.379154 8.039990
8.471388 1.818469 8.037970
8.386451 1.535465 8.041000
8.638350 2.303627 8.031910
8.607965 2.164819 8.034940
8.579394 1.968461 8.042010
8.545773 1.772033 8.041000
8.534478 1.640562 8.044030
8.749693 2.287000 8.051100
8.851891 2.274286 8.031910
9.060644 2.298413 8.023830
8.980303 2.264968 8.034940
9.147115 2.326893 8.035950
9.224141 2.236049 8.045040
9.287261 5.600559 7.974340
9.428736 2.340926 8.035950
9.330739 2.269861 8.031910
9.659584 2.518897 8.036960
9.568642 2.448940 8.045040
9.893363 2.703979 8.018780
9.794511 2.621791 8.044030
10.017855 2.975413 8.035950
9.997292 2.784218 8.044030
10.239023 2.978502 8.038980
10.125164 2.886003 8.035950
10.462999 3.142235 8.046050
10.363109 3.062052 8.037970
10.689821 3.319139 8.017770
10.596930 3.244105 8.041000
10.866738 3.670093 8.042010
10.788800 3.392238 8.044030
11.033574 4.164341 8.043020
11.011155 4.033725 8.037970
10.984816 3.822247 8.041000
10.943017 3.632775 8.035950
10.932830 3.494249 8.029890
6.432359 0.418283 8.316730
6.567897 0.405024 8.329860
6.772944 0.477584 8.302590
6.832116 0.363259 8.221790
7.032503 0.480198 8.240980
6.933538 0.406089 8.228860
7.271359 0.663331 8.244010
7.168439 0.583106 8.236940
7.499078 0.848329 8.275320
7.395261 0.760010 8.238960
7.628521 1.126903 8.237950
7.608100 0.925608 8.237950
7.506218 0.843378 8.212700
7.851780 1.124970 8.232900
7.722941 1.020141 8.253100
8.070749 1.285603 8.240980
7.976805 1.213584 8.249060
8.292465 1.466476 8.211690
8.191635 1.381230 8.254110
8.473407 1.818497 8.261180
8.387475 1.534469 8.260170
8.303729 1.455522 8.312690
8.642291 2.310753 8.251080
8.615988 2.168972 8.269260
8.585453 1.968546 8.259160
8.542659 1.778050 8.261180
8.538517 1.640619 8.275320
8.767632 2.304422 8.264210
8.848847 2.275253 8.227850
9.025213 2.303979 8.255120
8.982309 2.266006 8.243000
9.136006 2.326738 8.252090
9.224239 2.228980 8.241990
9.428708 2.342946 8.244010
9.339772 2.274028 8.265220
9.663581 2.521983 8.235930
9.569624 2.450974 8.239970
9.890291 2.706966 8.221790
9.793487 2.622786 8.239970
10.027898 2.979594 8.254110
9.998316 2.783222 8.239970
9.899521 2.696994 8.228860
10.246121 2.976581 8.240980
10.124182 2.883969 8.251080
10.461022 3.139177 8.247040
10.362099 3.062038 8.241990
10.687759 3.322141 8.244010
10.593928 3.242043 8.244010
10.866753 3.669084 8.266230
10.790792 3.394286 8.244010
11.007200 4.027609 8.243000
10.982880 3.816159 8.243000
10.945121 3.626744 8.236940
10.930824 3.493211 8.234920
6.608739 0.445998 8.452070
6.595122 0.408434 8.436920
6.741820 0.464018 8.429850
6.826028 0.365194 8.456110
7.033527 0.479202 8.440960
6.950565 0.416428 8.449040
7.272369 0.663345 8.441970
7.170459 0.583134 8.445000
7.489989 0.848202 8.364200
7.397281 0.760039 8.447020
7.630456 1.132991 8.453080
7.611045 0.931710 8.440960
7.505236 0.841344 8.419750
7.847769 1.122894 8.448030
7.716712 1.032175 8.433890
8.068771 1.282545 8.446010
7.973860 1.207483 8.447020
8.294442 1.469534 8.478330
8.198690 1.382339 8.442980
8.472398 1.818483 8.435910
8.399537 1.538678 8.442980
8.305692 1.459590 8.373290
8.643287 2.311777 8.447020
8.618975 2.172044 8.445000
8.588525 1.965558 8.442980
8.544707 1.776058 8.450050
8.538489 1.642638 8.450050
8.772625 2.308532 8.448030
8.864009 2.274455 8.435910
9.008016 2.305759 8.442980
8.979279 2.265964 8.446010
9.142051 2.327832 8.448030
9.228321 2.226007 8.445000
9.431780 2.339959 8.447020
9.332773 2.268879 8.440960
9.659612 2.516877 8.440960
9.563705 2.440790 8.445000
9.892296 2.708004 8.406620
9.796516 2.622829 8.449040
10.025821 2.983606 8.448030
10.002384 2.781259 8.440960
10.236989 2.979483 8.448030
10.123158 2.884965 8.440960
10.461050 3.137157 8.441970
10.365115 3.063091 8.445000
10.690732 3.326223 8.433890
10.595962 3.241061 8.447020
10.869712 3.674175 8.465200
10.789796 3.393262 8.443990
11.009178 4.030667 8.448030
10.983848 3.819203 8.445000
10.941054 3.628707 8.438940
10.933840 3.494263 8.449040
6.604713 0.444932 8.639930
6.587071 0.406302 8.649020
6.745817 0.467104 8.642960
6.829100 0.362207 8.649020
7.039530 0.483327 8.644980
6.955572 0.419528 8.644980
7.271387 0.661311 8.647000
7.171469 0.583149 8.647000
7.498082 0.847305 8.656090
7.396285 0.759015 8.644980
7.632561 1.126959 8.644980
7.606151 0.920531 8.645990
7.507270 0.840362 8.684370
7.844852 1.114772 8.644980
7.715985 1.011963 8.662150
8.068771 1.282545 8.643970
7.969877 1.203387 8.647000
8.295495 1.466518 8.669220
8.198690 1.382339 8.644980
8.460448 1.806195 8.651040
8.397574 1.534610 8.645990
8.305720 1.457570 8.640940
8.642277 2.311763 8.652050
8.620953 2.175102 8.650030
8.588497 1.967578 8.648010
8.543669 1.778064 8.645990
8.533482 1.639538 8.643970
8.777688 2.307593 8.647000
8.869031 2.276545 8.659120
9.015072 2.306867 8.652050
8.980289 2.265978 8.642960
9.141084 2.324788 8.644980
9.233427 2.222038 8.640940
9.431766 2.340969 8.647000
9.335817 2.267912 8.639930
9.666597 2.523035 8.649020
9.565697 2.442838 8.641950
9.886307 2.702870 8.638920
9.797512 2.623853 8.649020
10.027827 2.984644 8.649020
10.004362 2.784316 8.641950
10.229065 2.968262 8.647000
10.115192 2.876773 8.633870
10.462046 3.138181 8.641950
10.362127 3.060019 8.650030
10.685725 3.323122 8.638920
10.592975 3.237989 8.649020
10.865813 3.664020 8.638920
10.788843 3.389208 8.647000
10.700019 3.312211 8.590440
11.010329 4.020582 8.649020
10.982838 3.819189 8.645990
10.939931 3.636772 8.643970
10.933812 3.496283 8.652050
6.610801 0.442997 8.846980
6.599147 0.409501 8.847990
6.749857 0.467161 8.845970
6.829001 0.369276 8.850010
7.040540 0.483341 8.849000
6.954548 0.420524 8.845970
7.276423 0.662392 8.853040
7.176504 0.584229 8.847990
7.397323 0.757009 8.847990
7.626459 1.129904 8.849000
7.612111 0.927684 8.849000
7.506289 0.838328 8.859100
7.843800 1.117788 8.846980
7.717906 1.019060 8.826780
8.069795 1.281549 8.851020
7.971882 1.204425 8.850010
8.299562 1.464555 8.816680
8.200710 1.382367 8.850010
8.470364 1.819464 8.846980
8.398570 1.535634 8.844960
8.303672 1.459562 8.885360
8.644311 2.310781 8.853040
8.620911 2.178131 8.850010
8.588497 1.967578 8.849000
8.541607 1.781065 8.847990
8.539513 1.641643 8.847990
8.786777 2.307720 8.846980
8.876086 2.277654 8.854050
9.009012 2.306783 8.859100
8.980261 2.267997 8.852030
9.150159 2.325925 8.842940
9.228321 2.226007 8.839910
9.430742 2.341964 8.846980
9.335774 2.270941 8.859100
9.665587 2.523021 8.857080
9.563663 2.443820 8.843950
9.890333 2.703937 8.832840
9.795520 2.621805 8.847990
10.028738 2.991727 8.845970
9.995385 2.776110 8.841930
10.239037 2.977492 8.849000
10.116131 2.881837 8.856070
10.459058 3.135109 8.840920
10.364133 3.061057 8.849000
10.689723 3.326208 8.851020
10.593971 3.239013 8.849000
10.868702 3.674161 8.836880
10.792812 3.394314 8.846980
10.702025 3.313249 8.824760
11.008196 4.028633 8.847990
10.984787 3.824267 8.849000
10.940015 3.630713 8.849000
10.929772 3.496227 8.854050
6.610787 0.444007 9.044940
6.582007 0.407241 9.046960
6.742802 0.466052 9.045950
6.829983 0.371310 9.048980
7.040525 0.484351 9.054030
6.952514 0.421506 9.044940
7.268357 0.661269 9.056050
7.170445 0.584144 9.049990
7.496063 0.847276 9.035850
7.398277 0.761063 9.048980
7.629475 1.130957 9.049990
7.610049 0.930686 9.052010
7.508280 0.840376 9.047970
7.838806 1.113678 9.054030
7.725872 1.027252 9.032820
8.071773 1.284607 9.059080
7.968853 1.204382 9.047970
8.299506 1.468595 9.035850
8.200696 1.383377 9.051000
8.471515 1.809380 9.062110
8.398541 1.537654 9.052010
8.304654 1.461596 9.068170
8.643301 2.310767 9.054030
8.616998 2.168986 9.055040
8.588568 1.962529 9.048980
8.542659 1.778050 9.051000
8.535488 1.640576 9.048980
8.788825 2.305728 9.058070
8.869031 2.276545 9.039890
9.010022 2.306797 9.056050
8.974216 2.266903 9.047970
9.147101 2.327903 9.052010
9.230285 2.230075 9.042920
9.429746 2.340940 9.048980
9.334765 2.270927 9.061100
9.663581 2.521983 9.051000
9.562667 2.442796 9.047970
9.885269 2.704876 9.071200
9.796502 2.623839 9.044940
10.031754 2.992779 9.049990
9.995343 2.779140 9.049990
9.902550 2.697036 9.017670
10.232039 2.972344 9.045950
10.117155 2.880841 9.055040
10.457992 3.139135 9.048980
10.359083 3.060986 9.048980
10.684744 3.321088 9.047970
10.592933 3.241019 9.045950
10.863822 3.661972 9.045950
10.790806 3.393276 9.053020
11.011254 4.026656 9.047970
10.981800 3.821195 9.054030
10.943144 3.623686 9.054030
10.928762 3.496212 9.054030
6.614855 0.442043 9.250980
6.588039 0.409346 9.253000
6.741848 0.461998 9.246940
6.830025 0.368280 9.253000
7.038492 0.485332 9.251990
6.950537 0.418448 9.249970
7.272355 0.664355 9.255020
7.171426 0.586178 9.251990
7.399258 0.763097 9.250980
7.628437 1.132962 9.253000
7.610077 0.928666 9.254010
7.508252 0.842396 9.259060
7.832705 1.116623 9.247950
7.717934 1.017041 9.257040
8.066737 1.283527 9.258050
7.971840 1.207454 9.248960
8.290459 1.465438 9.203510
8.197681 1.382325 9.251990
8.471374 1.819479 9.261080
8.396550 1.535606 9.254010
8.305636 1.463630 9.294410
8.642291 2.310753 9.254010
8.615932 2.173011 9.251990
8.587487 1.967564 9.250980
8.544721 1.775048 9.255020
8.540481 1.644686 9.254010
8.782738 2.307663 9.251990
8.872060 2.276588 9.288350
9.019111 2.306924 9.251990
8.971144 2.269890 9.254010
9.142051 2.327832 9.249970
9.233329 2.229107 9.248960
9.428750 2.339916 9.250980
9.334750 2.271937 9.249970
9.662571 2.521969 9.245930
9.564687 2.442824 9.249970
9.885269 2.704876 9.255020
9.796488 2.624849 9.248960
10.030716 2.994785 9.256030
9.994390 2.775086 9.253000
10.241114 2.973480 9.245930
10.113130 2.879774 9.275220
10.460012 3.139163 9.247950
10.362113 3.061028 9.256030
10.684687 3.325128 9.231790
10.596930 3.244105 9.250980
10.867650 3.677177 9.262090
10.787805 3.391214 9.254010
11.010174 4.031691 9.249970
10.981842 3.818165 9.254010
10.943031 3.631765 9.255020
10.927781 3.494179 9.256030
6.604741 0.442912 9.450960
6.743854 0.463036 9.447930
6.823952 0.369206 9.455000
7.042503 0.487409 9.456010
6.949513 0.419444 9.447930
7.273351 0.665379 9.453990
7.175438 0.588254 9.451970
7.495024 0.849282 9.504490
7.398263 0.762073 9.456010
7.624411 1.131896 9.455000
7.611059 0.930700 9.449950
7.507256 0.841372 9.452980
7.841766 1.118770 9.455000
7.735816 1.038502 9.465100
8.068771 1.282545 9.456010
7.972850 1.207468 9.451970
8.200696 1.383377 9.455000
8.470378 1.818455 9.448940
8.392538 1.533530 9.455000
8.303687 1.458552 9.422680
8.640229 2.313754 9.459040
8.616941 2.173025 9.461060
8.587558 1.962515 9.457020
8.542631 1.780070 9.458030
8.531490 1.637490 9.452980
8.782724 2.308673 9.450960
8.881121 2.278734 9.483280
9.019097 2.307934 9.451970
8.980219 2.271027 9.460050
9.141013 2.329838 9.453990
9.232333 2.228083 9.456010
9.429746 2.340940 9.453990
9.335760 2.271951 9.445910
9.663610 2.519963 9.456010
9.565697 2.442838 9.453990
9.885298 2.702856 9.451970
9.793543 2.618747 9.456010
10.029805 2.987702 9.459040
9.993380 2.775072 9.457020
9.899577 2.692955 9.462070
10.235083 2.971376 9.452980
10.113172 2.876745 9.469140
10.461064 3.136147 9.452980
10.361146 3.057985 9.451970
10.690718 3.327232 9.440860
10.595962 3.241061 9.457020
10.868645 3.678201 9.470150
10.793850 3.392309 9.458030
11.007215 4.026600 9.455000
10.981870 3.816145 9.456010
10.947169 3.624752 9.457020
10.932802 3.496269 9.447930
6.603717 0.443908 9.646900
6.745888 0.462055 9.663060
6.832031 0.369318 9.659020
7.041507 0.486385 9.654980
6.951547 0.418462 9.653970
7.271373 0.662321 9.661040
7.171455 0.584158 9.657000
7.491995 0.849240 9.658010
7.398291 0.760053 9.655990
7.626487 1.127885 9.659020
7.614075 0.931752 9.653970
7.508266 0.841386 9.675180
7.838764 1.116707 9.651950
7.729827 1.033368 9.675180
8.069767 1.283569 9.660030
7.970858 1.205420 9.659020
8.298397 1.475650 9.719620
8.200682 1.384387 9.655990
8.470491 1.810375 9.658010
8.396564 1.534596 9.654980
8.305678 1.460600 9.728710
8.642277 2.311763 9.654980
8.617895 2.177079 9.658010
8.586506 1.965530 9.655990
8.540625 1.779032 9.657000
8.537493 1.641614 9.663060
8.785739 2.309726 9.654980
8.881164 2.275705 9.690330
9.000919 2.307680 9.658010
8.975183 2.269947 9.663060
9.140060 2.325784 9.660030
9.230242 2.233104 9.661040
9.430742 2.341964 9.658010
9.335732 2.273971 9.650940
9.664577 2.523007 9.660030
9.562667 2.442796 9.663060
9.887303 2.703894 9.688310
9.795506 2.622815 9.659020
10.026733 2.990689 9.665080
9.997377 2.778158 9.658010
9.899535 2.695984 9.673160
10.232025 2.973354 9.650940
10.120157 2.882903 9.652960
10.458034 3.136105 9.655990
10.362141 3.059009 9.655990
10.679624 3.326067 9.677200
10.592947 3.240009 9.661040
10.864662 3.674105 9.658010
10.792826 3.393304 9.662050
11.010287 4.023612 9.654980
10.978869 3.814083 9.659020
10.942106 3.625691 9.671140
10.931764 3.498275 9.652960
6.744864 0.463050 9.854960
6.819828 0.375209 9.862030
7.029261 0.495304 9.856980
6.948531 0.417410 9.842840
7.258132 0.670217 9.854960
7.171412 0.587188 9.849910
7.457334 0.871988 9.899400
7.395205 0.764050 9.853950
7.622349 1.134898 9.859000
7.610932 0.939789 9.855970
7.522503 0.834514 9.880210
7.837599 1.127802 9.857990
7.728676 1.043453 9.823650
8.057465 1.296529 9.855970
7.965752 1.209390 9.850920
8.267663 1.506534 9.902430
8.199573 1.391442 9.850920
8.103446 1.258787 9.957980
8.472525 1.809394 9.866070
8.393393 1.544653 9.853950
8.317994 1.446631 9.927680
8.642249 2.313783 9.861020
8.617853 2.180109 9.855970
8.586421 1.971590 9.864050
8.541635 1.779046 9.855970
8.537465 1.643634 9.848900
8.782710 2.309683 9.859000
8.878106 2.277682 9.867080
9.018101 2.306910 9.849910
8.981257 2.269021 9.868090
9.151140 2.327959 9.864050
9.226175 2.235068 9.859000
9.422522 2.351951 9.857990
9.345817 2.275122 9.849910
9.651392 2.526863 9.860010
9.561671 2.441772 9.851930
9.854704 2.723641 9.897380
9.791410 2.626798 9.846880
10.027700 2.993733 9.864050
10.004249 2.792396 9.851930
9.924153 2.669055 9.947880
10.223847 2.980310 9.862030
10.119133 2.883899 9.798400
10.447780 3.147073 9.864050
10.361061 3.064044 9.849910
10.672427 3.335058 9.884250
10.585849 3.241930 9.851930
10.868871 3.662042 9.866070
10.789712 3.399322 9.851930
10.762718 3.307026 9.952930
11.011282 4.024636 9.856980
10.979879 3.814097 9.856980
10.938151 3.619576 9.866070
10.930895 3.488161 9.852940
6.741820 0.464018 10.065040
6.829044 0.366246 10.068070
7.072227 0.456511 10.016560
7.001413 0.391886 10.062010
7.204378 0.541184 10.033730
7.112629 0.384348 10.113520
7.417118 0.713851 10.024640
7.350250 0.583625 10.083220
7.622434 1.128838 10.058980
7.649365 0.936285 10.059990
7.579819 0.780769 10.077160
7.561093 0.602730 10.144830
7.840282 1.080365 10.059990
7.767123 1.038940 10.067060
7.719121 0.715038 10.157960
8.069025 1.264367 9.979190
8.003711 1.167495 10.038780
7.908735 1.024755 10.137760
8.220603 1.332140 10.034740
8.175361 1.244640 10.077160
8.475399 1.820545 10.073120
8.435363 1.504835 10.028680
8.353651 1.424906 10.039790
8.322262 1.213358 10.131700
8.642235 2.314792 10.063020
8.615946 2.172001 10.057970
8.586492 1.966540 10.064030
8.537595 1.778989 10.059990
8.541200 1.593181 10.061000
8.623436 1.418573 10.147860
8.788769 2.309768 10.059990
8.870026 2.277569 10.128670
9.016067 2.307891 10.062010
8.972168 2.268895 10.058980
9.150145 2.326935 10.057970
9.227311 2.225993 10.067060
9.451504 2.301850 10.014540
9.392597 2.252543 10.072110
9.612119 2.518234 9.965050
9.609828 2.392950 10.043830
9.579358 2.260201 10.120590
9.807532 2.557326 10.029690
9.779923 2.436739 10.106450
10.025694 2.992695 10.059990
10.059794 2.793171 10.057970
9.971257 2.623249 10.064030
9.946035 2.476432 10.148870
10.213260 2.942789 10.047870
10.196768 2.894074 10.079180
10.130949 2.616388 10.147860
10.472540 3.110045 9.985250
10.396258 3.002919 10.043830
10.616067 3.175685 10.027670
10.522236 3.095587 10.031710
10.555466 2.885951 10.132710
10.864592 3.679154 10.055950
10.847896 3.355690 10.018580
10.754150 3.269532 10.032720
11.011184 4.031705 10.064030
10.981885 3.815135 10.057970
10.941166 3.620628 10.059990
10.944757 3.435830 10.070090
11.051123 3.196912 10.147860
6.740810 0.464004 10.263000
6.821989 0.365138 10.267040
6.987514 0.374520 10.265020
7.233769 0.461797 10.194320
7.196803 0.360271 10.222600
7.245210 0.148826 10.323600
7.407077 0.492499 10.192300
7.385759 0.283111 10.300370
7.367417 0.222249 10.337740
7.621381 1.131854 10.259970
7.654358 0.940396 10.261990
7.623330 0.775316 10.227650
7.574335 0.594835 10.187250
7.527991 0.224491 10.339760
7.840338 1.076325 10.254920
7.775230 1.037033 10.257950
7.771043 0.758187 10.233710
7.936894 1.105956 10.256940
7.911333 0.983378 10.297340
8.254607 1.284130 10.194320
8.250883 1.189129 10.224620
8.471374 1.819479 10.264010
8.316403 1.343578 10.181190
8.353179 1.169345 10.219570
8.642220 2.315802 10.257950
8.617867 2.179099 10.261990
8.584486 1.965502 10.264010
8.537609 1.777979 10.267040
8.546292 1.590222 10.258960
8.668168 1.397985 10.224620
8.786749 2.309740 10.266030
8.870041 2.276559 10.251890
8.756935 1.479022 10.345820
8.772611 1.369141 10.285220
8.839219 1.228657 10.274110
9.008998 2.307793 10.265020
8.979265 2.266973 10.258960
9.147157 2.323863 10.264010
9.233413 2.223048 10.258960
9.399807 2.242543 10.264010
9.455077 1.973618 10.226640
9.464835 1.853553 10.322590
9.651324 2.314741 10.169070
9.659380 2.244147 10.210480
9.581944 2.002662 10.316530
9.519186 1.867443 10.276130
9.808149 2.368446 10.195330
9.715653 2.265135 10.263000
10.024670 2.993690 10.260980
10.064758 2.799301 10.261990
10.051322 2.604165 10.219570
9.946275 2.459264 10.200380
10.178110 2.928156 10.253910
10.223110 2.888381 10.258960
10.120277 2.584925 10.184220
10.318360 2.939206 10.289260
10.677548 2.751292 10.299360
10.855517 3.678018 10.261990
10.897156 3.372539 10.232700
10.796353 2.923658 10.169070
10.802226 2.792427 10.282190
10.757491 2.668571 10.301380
11.011184 4.031705 10.261990
10.981814 3.820185 10.265020
10.939006 3.630699 10.259970
10.942836 3.428732 10.260980
11.000214 3.298221 10.315520
11.018005 3.036854 10.263000
10.939285 2.887270 10.294310
11.205740 3.336444 10.253910
11.179606 3.182544 10.273100
11.123015 3.112057 10.314510
6.740796 0.465014 10.463990
6.827066 0.363188 10.463990
6.984414 0.379527 10.469040
7.307269 0.261813 10.416520
7.249123 0.157971 10.461970
7.135029 0.009914 10.389250
7.405440 0.248033 10.460960
7.409316 0.187481 10.463990
7.623387 1.132892 10.467020
7.655354 0.941420 10.462980
7.640845 0.823035 10.467020
7.520053 0.214280 10.469040
7.828262 1.073127 10.461970
7.788345 1.038226 10.474090
7.934902 1.103908 10.469040
7.904540 1.035808 10.520550
8.471345 1.821498 10.441770
8.641239 2.313768 10.460960
8.618905 2.177093 10.465000
8.587459 1.969584 10.463990
8.537652 1.774950 10.472070
8.544314 1.587164 10.457930
8.781671 2.311689 10.465000
8.884207 2.274737 10.446820
8.725727 1.471516 10.545800
8.836234 1.370029 10.449850
8.895336 1.260754 10.394300
9.019168 2.302884 10.463990
8.975225 2.266917 10.461970
8.908953 1.298317 10.555900
9.144085 2.326851 10.462980
9.222177 2.231982 10.457930
9.395739 2.244506 10.465000
9.430944 1.893483 10.486210
9.472087 1.840523 10.475100
9.608343 1.992930 10.456920
9.764891 1.994106 10.480150
10.028682 2.995767 10.468030
10.065881 2.791236 10.458940
10.050165 2.686976 10.440760
10.198351 2.925409 10.482170
10.206923 2.890175 10.453890
10.125363 2.654693 10.463990
10.325373 2.943344 10.447830
10.698971 2.880884 10.489240
10.664594 2.666263 10.387230
10.867607 3.680207 10.472070
10.750284 2.823015 10.393290
11.009192 4.029657 10.461970
10.980804 3.820171 10.467020
10.939048 3.627669 10.459950
10.943832 3.429756 10.470050
10.993060 3.304182 10.378140
11.047560 3.018075 10.444800
10.958826 2.862290 10.372080
11.187099 3.152346 10.440760
11.139484 3.090065 10.470050
6.735761 0.463933 10.667000
6.821904 0.371197 10.669020
6.983404 0.379513 10.670030
7.237049 0.299217 10.656900
7.245309 0.141756 10.681140
7.425582 0.252354 10.667000
7.410227 0.194564 10.672050
7.620329 1.134869 10.668010
7.654316 0.943425 10.667000
7.628585 0.832965 10.654880
7.514036 0.211165 10.623570
7.836256 1.079299 10.663970
7.778218 1.040105 10.665990
7.934902 1.103908 10.672050
7.915457 0.977375 10.740730
8.467348 1.818412 10.654880
8.645264 2.314835 10.660940
8.622005 2.172086 10.660940
8.591527 1.967621 10.667000
8.536543 1.782005 10.672050
8.540218 1.591148 10.660940
8.782653 2.313723 10.672050
8.871050 2.276573 10.659930
8.795396 1.473499 10.684170
8.880416 1.388828 10.663970
9.013066 2.305829 10.665990
8.978227 2.268979 10.663970
8.928671 1.332936 10.697300
9.146133 2.324859 10.668010
9.236485 2.220060 10.661950
9.396763 2.243510 10.665990
9.464223 1.969706 10.691240
9.466084 1.836399 10.684170
9.526073 2.242286 10.745780
9.617263 2.005176 10.662960
9.509031 1.871342 10.608420
9.756299 2.103077 10.695280
9.804808 2.029007 10.669020
10.028611 3.000816 10.675080
10.067901 2.791264 10.663970
10.042030 2.690903 10.634680
9.963671 2.226174 10.727600
10.213471 2.927640 10.673060
10.197806 2.892068 10.661950
10.323367 2.942306 10.651850
10.858575 3.676040 10.674070
10.891965 3.382568 10.662960
11.010216 4.028662 10.667000
10.981800 3.821195 10.670030
10.936004 3.628637 10.661950
10.943817 3.430766 10.664980
11.069721 3.022424 10.662960
11.231171 3.323668 10.742750
11.189302 3.139245 10.648820
11.159808 3.081258 10.668010
7.085384 0.454674 10.945760
6.998425 0.388814 10.879100
7.206454 0.537173 10.932630
7.106936 0.358006 10.955860
7.242237 0.144744 10.867990
7.418241 0.705786 10.933640
7.330469 0.625773 10.916470
7.405356 0.254092 10.857890
7.416343 0.190609 10.867990
7.621381 1.131854 10.866980
7.652338 0.940367 10.870010
7.572313 0.811977 10.906370
7.839371 1.073282 10.866980
7.775216 1.038043 10.848800
7.996755 1.159317 10.919500
8.029449 0.988057 10.890210
8.220618 1.331130 10.931620
8.115918 1.233709 10.919500
8.470392 1.817445 10.864960
8.437312 1.509913 10.937680
8.355600 1.429984 10.924550
8.642235 2.314792 10.872030
8.622019 2.171076 10.864960
8.592664 1.958546 10.865970
8.537624 1.776969 10.869000
8.538213 1.590109 10.860920
8.789779 2.309782 10.869000
8.870026 2.277569 10.888190
8.762882 1.487186 10.836680
8.861547 1.438059 10.864960
9.015100 2.304847 10.866980
8.978227 2.268979 10.863950
8.946568 1.353388 10.865970
9.140060 2.325784 10.872030
9.228321 2.226007 10.875060
9.480749 2.305289 10.955860
9.400718 2.249626 10.867990
9.428120 1.951020 10.870010
9.462829 1.852515 10.884150
9.607864 2.388882 10.934650
9.621878 2.180997 10.825570
9.600278 1.991807 10.870010
9.819665 2.556485 10.935660
9.726957 2.468322 10.921520
9.781420 2.112518 10.888190
9.812746 2.039218 10.869000
10.026690 2.993719 10.866980
10.061799 2.794209 10.874050
9.965672 2.661554 10.919500
9.939326 2.161188 10.920510
9.990588 2.034631 10.813450
10.199177 2.938552 10.881120
10.214007 2.889264 10.852840
10.388320 2.992708 10.918490
10.613108 3.170594 10.936670
10.529404 3.088617 10.915460
10.870623 3.681259 10.851830
10.846901 3.354666 10.926570
10.756212 3.266531 10.928590
11.008196 4.028633 10.872030
10.981842 3.818165 10.869000
10.938066 3.625635 10.870010
10.941769 3.432758 10.864960
10.946954 3.133841 10.966970
11.085978 3.015581 10.863950
11.214857 3.334551 10.893240
11.222806 3.199309 10.876070
11.173905 3.084485 10.869000
11.372647 3.246856 10.849810
7.079254 0.459639 11.039690
6.998326 0.395883 11.066960
7.199300 0.543133 11.045750
7.181593 0.436826 11.126550
7.242420 0.131615 11.003330
7.417075 0.716881 11.043730
7.314282 0.627567 11.052820
7.361634 0.274694 11.012420
7.415291 0.193625 11.012420
7.621325 1.135893 11.072010
7.648369 0.935261 11.069990
7.560208 0.810798 11.062920
7.831122 1.085288 11.069990
7.763069 1.039893 11.051810
8.004608 1.175589 11.050800
8.210434 1.337048 11.043730
8.122761 1.249966 11.066960
8.469382 1.817431 11.048780
8.433287 1.508846 11.044740
8.344379 1.437908 11.044740
8.642235 2.314792 11.068980
8.622888 2.181189 11.073020
8.595524 1.970707 11.079080
8.538535 1.784053 11.062920
8.541087 1.601261 11.075040
8.782696 2.310693 11.071000
8.882174 2.275719 11.060900
8.859626 1.430962 10.987170
9.015100 2.304847 11.061910
8.980275 2.266988 11.066960
8.981858 1.357921 10.996260
9.140060 2.325784 11.075040
9.235475 2.220046 11.075040
9.474661 2.307224 11.031610
9.395683 2.248546 11.067970
9.497104 1.929761 10.991210
9.459771 1.854492 11.021510
9.606685 2.400987 11.042720
9.586738 2.238082 11.161900
9.623237 2.011320 11.007370
9.783776 3.245882 11.148770
9.813493 2.564480 11.040700
9.726773 2.481451 11.062920
9.836696 2.132482 11.004340
9.802196 2.071394 11.015450
10.022637 2.994672 11.068980
10.058812 2.791137 11.066960
9.958603 2.661456 11.052820
9.946353 2.164316 10.992220
10.210173 2.946786 11.065950
10.185659 2.893918 11.072010
10.495598 3.122488 10.995250
10.396131 3.012009 11.051810
10.610961 3.179654 11.046760
10.513161 3.094451 11.044740
10.867650 3.677177 11.074030
10.840771 3.359631 11.032620
10.753013 3.278607 11.050800
11.009263 4.024608 11.069990
10.981828 3.819175 11.075040
10.937014 3.628651 11.071000
10.941671 3.439827 11.076050
11.092052 3.014655 10.991210
11.178878 3.162332 10.995250
11.167817 3.086420 10.996260
11.362379 3.258834 11.002320
6.986405 0.381575 11.273000
7.204493 0.315934 11.271990
7.236403 0.128501 11.315420
7.413201 0.198646 11.321480
7.619390 1.129806 11.266940
7.654372 0.939386 11.274010
7.629595 0.832979 11.289160
7.840352 1.075316 11.269970
7.767067 1.042979 11.276030
7.807188 0.773843 11.295220
7.933878 1.104904 11.270980
7.903460 1.040843 11.188160
8.236750 1.116204 11.278050
8.471388 1.818469 11.290170
8.324902 1.168950 11.348750
8.639233 2.312730 11.263910
8.622005 2.172086 11.274010
8.594514 1.970693 11.278050
8.536416 1.791094 11.270980
8.541242 1.590152 11.262900
8.778614 2.313666 11.278050
8.859913 2.278438 11.276030
8.848235 1.451004 11.298250
9.020177 2.302898 11.280070
8.974244 2.264883 11.269970
8.982543 1.381163 11.317440
9.146161 2.322839 11.274010
9.222234 2.227942 11.274010
9.391813 2.236371 11.271990
9.495493 1.900445 11.326530
9.452603 1.861463 11.315420
9.571313 2.185342 11.221490
9.608526 1.979801 11.330570
9.881161 3.433100 11.302290
9.874901 3.302709 11.204320
9.896166 2.358564 11.221490
9.812515 2.128104 11.306330
9.778771 2.085209 11.315420
9.946063 3.414814 11.321480
9.924053 3.254911 11.208360
10.025582 3.000774 11.273000
10.065811 2.796286 11.270980
10.054233 2.685013 11.284110
9.952398 2.165411 11.317440
10.216487 2.928692 11.261890
10.192714 2.895027 11.282090
10.114128 2.663627 11.295220
10.325415 2.940314 11.280070
10.861590 3.677092 11.279060
10.896061 3.378584 11.313400
11.010202 4.029672 11.271990
10.978798 3.819133 11.276030
10.937084 3.623601 11.267950
10.942751 3.434792 11.275020
10.967601 3.318977 11.266940
11.096622 3.049063 11.286130
11.171432 3.333945 11.284110
11.228993 3.190305 11.295220
11.161044 3.065114 11.318450
11.327131 3.251271 11.352790
6.989421 0.382627 11.475000
7.191265 0.322820 11.442680
7.243430 0.131629 11.466920
7.457913 0.251796 11.459850
7.407184 0.195532 11.475000
7.616332 1.131783 11.465910
7.655340 0.942429 11.476010
7.634687 0.830020 11.485100
7.830211 1.078204 11.468940
7.789313 1.041270 11.473990
7.809420 0.758723 11.500250
7.929839 1.104848 11.488130
7.907527 1.038880 11.509340
8.284506 1.168386 11.443690
8.470364 1.819464 11.463890
8.382941 1.208144 11.483080
8.641225 2.314778 11.471970
8.620967 2.174092 11.469950
8.592636 1.960565 11.478030
8.535547 1.780981 11.484090
8.539166 1.594163 11.482070
8.778614 2.313666 11.476010
8.866001 2.276503 11.479040
8.811484 1.478774 11.387130
8.881102 1.412070 11.414400
9.004019 2.302673 11.477020
8.977259 2.265935 11.478030
9.049493 1.360886 11.491160
9.143160 2.320777 11.481060
9.229374 2.222991 11.483080
9.402851 2.241575 11.479040
9.462640 1.938370 11.482070
9.457681 1.859513 11.448740
9.589336 2.196705 11.486110
9.615482 1.987979 11.477020
9.514921 1.883545 11.525500
9.819655 2.123153 11.470960
9.785925 2.079248 11.489140
10.030688 2.996805 11.475000
10.064914 2.788192 11.476010
10.049085 2.692012 11.412380
9.947292 2.169380 11.485100
10.202362 2.927485 11.482070
10.222044 2.892406 11.461870
10.330450 2.941395 11.475000
10.874663 3.681315 11.467930
10.896987 3.384658 11.480050
11.008267 4.023584 11.470960
10.980846 3.817141 11.478030
10.938066 3.625635 11.466920
10.944700 3.439870 11.481060
11.047261 3.256454 11.485100
11.107581 2.987600 11.508330
11.217915 3.332574 11.475000
11.223957 3.189224 11.463890
11.147060 3.053807 11.469950
11.321438 3.224929 11.472980
6.984357 0.383567 11.673970
7.157614 0.345582 11.625490
7.241467 0.127561 11.657810
7.463104 0.241767 11.641650
7.400128 0.194423 11.680030
7.617271 1.136847 11.679020
7.653404 0.936342 11.672960
7.634729 0.826990 11.663870
7.826143 1.080168 11.671950
7.784277 1.040189 11.689120
7.803628 0.739450 11.705280
7.930820 1.106882 11.680030
7.902450 1.040829 11.773960
8.472454 1.814443 11.662860
8.371789 1.211019 11.615390
8.640243 2.312744 11.673970
8.620013 2.170038 11.677000
8.594557 1.967663 11.677000
8.536487 1.786044 11.683060
8.540148 1.596197 11.680030
8.539244 1.299215 11.750730
8.786749 2.309740 11.680030
8.877110 2.276658 11.664880
8.822593 1.478929 11.709320
8.864661 1.432042 11.748710
9.013108 2.302799 11.682050
8.976264 2.264911 11.672960
9.139120 2.320721 11.678010
9.227354 2.222963 11.683060
9.394856 2.235403 11.677000
9.491651 1.886250 11.597210
9.462730 1.859584 11.674980
9.609745 2.181838 11.656800
9.609747 1.964667 11.670940
9.829655 2.130363 11.671950
9.775953 2.070018 11.697200
10.030716 2.994785 11.678010
10.065881 2.791236 11.675990
10.057249 2.686065 11.678010
9.953182 2.181583 11.664880
10.197299 2.928424 11.678010
10.226112 2.890443 11.677000
10.329469 2.939361 11.680030
10.866597 3.680192 11.672960
10.895977 3.384644 11.703260
11.010202 4.029672 11.679020
10.980832 3.818151 11.673970
10.937028 3.627641 11.675990
10.943733 3.436826 11.674980
11.214857 3.334551 11.697200
11.221557 3.216463 11.673970
11.160090 3.061060 11.681040
11.381891 3.235874 11.667910
7.046040 0.451094 11.967880
6.994569 0.375628 11.888090
7.195500 0.525908 11.955760
7.212849 0.368575 11.928490
7.241608 0.117462 11.876980
7.421228 0.708858 11.955760
7.401647 0.519696 11.934550
7.346855 0.392669 11.929500
7.402247 0.187382 11.876980
7.621325 1.135893 11.880010
7.654273 0.946455 11.888090
7.610455 0.756955 11.931520
7.563141 0.600739 11.923440
7.830140 1.083254 11.879000
7.777462 1.021912 11.871930
7.756261 0.731718 11.887080
8.000780 1.160384 11.932530
8.023559 0.975854 11.938590
8.216578 1.331073 11.954750
8.219229 1.141212 11.946670
8.153032 1.035237 11.931520
8.471430 1.815439 11.874960
8.442418 1.505944 11.951720
8.402146 1.351846 11.942630
8.345659 1.201563 11.932530
8.644240 2.315831 11.880010
8.620967 2.174092 11.874960
8.593561 1.966639 11.883040
8.537581 1.779999 11.873950
8.541242 1.590152 11.883040
8.577460 1.383587 11.926470
8.598106 1.207108 11.955760
8.784715 2.310721 11.879000
8.871065 2.275564 11.875970
8.751759 1.488041 11.866880
8.854478 1.437960 11.884050
9.010107 2.300737 11.872940
8.975254 2.264897 11.877990
9.039070 1.383972 11.905260
9.140116 2.321745 11.882030
9.222234 2.227942 11.872940
9.458249 2.325177 11.937580
9.396806 2.240481 11.889100
9.428402 1.930822 11.866880
9.473881 1.856709 11.871930
9.609983 2.381841 11.955760
9.589237 2.203774 11.862840
9.617827 1.964780 11.876980
9.510938 1.879449 11.865870
9.830802 2.554621 11.952730
9.737056 2.468463 11.949700
9.836682 2.133492 11.877990
9.774872 2.075053 11.869910
10.025694 2.992695 11.882030
10.063890 2.789188 11.881020
9.988984 2.655819 11.917380
9.959171 2.186717 11.884050
10.200159 2.940585 11.874960
10.203837 2.894172 11.898190
10.382302 2.989593 11.930510
10.618157 3.170664 11.953740
10.542773 3.071632 11.955760
10.870778 3.670150 11.889100
10.862974 3.360951 11.945660
10.765231 3.271707 11.954750
11.011240 4.027666 11.886070
10.979808 3.819147 11.877990
10.940142 3.621624 11.874960
10.941628 3.442857 11.873950
10.969034 3.288695 11.955760
11.162187 3.344927 11.883040
11.233887 3.201484 11.883040
11.165098 3.064160 11.880010
11.363364 3.405312 11.870920
11.397068 3.234066 11.885060
7.038492 0.485332 12.091100
7.256140 0.668169 12.105240
7.182690 0.575224 12.071910
7.188625 0.367227 11.992120
7.230386 0.125387 11.989090
7.473690 0.858075 12.089080
7.398375 0.753993 12.079990
7.376662 0.572882 11.994140
7.350714 0.188683 12.003230
7.617328 1.132807 12.084030
7.616052 0.934810 12.081000
7.534763 0.824584 12.004240
7.826772 1.107449 12.079990
7.769199 1.034928 12.038580
8.062698 1.283470 12.092110
7.983034 1.201550 12.070900
7.996531 0.958305 11.998180
8.279237 1.473362 12.092110
8.191819 1.368101 12.077970
8.187795 1.149864 11.996160
8.472440 1.815453 12.082010
8.402623 1.534681 12.084030
8.327267 1.433629 12.024440
8.317898 1.236529 11.992120
8.638209 2.313726 12.078980
8.621935 2.177136 12.077970
8.591555 1.965601 12.086050
8.538591 1.780013 12.077970
8.538701 1.627490 12.074940
8.775626 2.310594 12.082010
8.869045 2.275535 12.072920
9.010121 2.299727 12.074940
